ncols         170
nrows         152
xllcorner     375000
yllcorner     118000
cellsize      1000
NODATA_value  -9999
119 80 51 79 47 40 30 52 57 71 46 53 60 60 49 65 68 70 70 87 85 80 88 107 134 141 140 147 100 99 88 130 108 157 163 158 135 112 116 121 134 125 96 98 110 111 115 120 109 106 91 100 90 79 62 50 65 70 74 82 92 70 64 70 67 68 70 101 86 81 97 97 78 88 77 83 89 101 134 164 149 138 128 134 132 132 132 119 147 169 154 126 103 95 88 88 122 84 74 99 93 88 88 109 110 117 133 129 123 112 114 101 80 83 68 45 59 82 65 38 39 60 53 61 64 84 80 83 67 57 46 41 38 37 64 71 67 49 54 50 54 51 48 32 18 13 11 21 14 13 28 34 22 9 6 5 3 3 2 3 4 5 9 13 9 7 8 7 4 2 
153 74 61 93 52 25 17 70 96 64 42 41 49 62 49 60 66 68 58 78 88 75 98 122 150 157 113 119 101 90 87 91 96 121 160 154 149 136 100 89 100 107 104 99 113 92 118 119 105 96 98 97 90 75 57 65 65 70 92 90 92 66 61 58 83 61 70 68 70 69 71 72 71 75 79 84 88 101 125 160 160 151 129 125 109 123 125 130 126 156 164 145 130 141 117 100 79 76 75 80 78 110 119 114 125 122 119 124 115 112 111 106 100 89 78 48 60 47 46 35 58 73 72 65 79 88 82 61 54 49 55 70 62 43 36 60 67 62 46 45 45 52 51 48 32 19 12 18 34 29 30 41 28 14 6 5 6 6 4 5 6 6 7 8 10 7 8 7 3 2 
154 141 69 51 43 50 16 52 94 64 45 44 49 48 52 49 58 50 52 62 71 79 89 110 130 122 139 111 117 117 78 78 88 100 161 129 133 112 107 89 79 99 93 109 99 103 121 112 115 103 106 98 75 77 53 69 63 79 89 81 61 59 78 78 62 67 75 68 82 90 76 70 75 79 83 88 85 92 117 116 157 159 143 117 122 116 112 132 137 150 121 136 123 125 120 96 110 90 69 109 111 116 110 109 110 114 116 111 111 112 108 100 92 62 50 42 40 40 54 49 52 78 70 80 84 83 62 69 78 50 77 61 70 47 39 29 60 60 51 45 45 45 34 39 23 14 11 17 29 44 45 32 16 11 9 7 9 11 7 7 8 8 7 7 7 6 6 5 7 12 
149 93 63 69 38 51 15 62 86 54 40 41 48 51 40 45 51 44 48 59 70 69 78 120 118 111 138 145 154 108 82 90 76 88 99 120 107 99 90 88 74 106 100 80 101 120 120 100 113 83 74 73 63 58 63 58 59 76 84 52 60 62 80 90 64 74 82 76 84 96 90 76 73 78 82 80 91 89 98 132 117 169 157 126 121 104 99 110 118 107 124 119 99 86 101 98 106 109 70 74 76 98 90 94 108 106 109 89 105 105 90 93 56 71 47 50 53 67 57 76 59 80 80 90 90 69 80 83 66 69 75 62 44 62 51 30 37 55 45 53 51 45 28 18 17 14 11 16 29 48 29 24 15 14 11 10 14 14 16 15 13 9 8 10 8 8 6 9 8 7 
109 90 92 78 72 47 14 50 86 43 32 39 46 46 51 45 39 60 55 60 86 80 91 91 110 96 121 119 138 108 100 68 69 75 94 91 109 100 79 75 73 100 72 89 117 121 104 106 113 100 76 62 60 57 52 47 51 50 52 52 71 82 102 93 70 68 68 85 98 94 83 80 76 77 83 86 87 99 98 125 114 146 133 109 104 114 100 94 99 104 119 105 108 89 100 87 75 102 66 101 112 100 114 112 90 88 103 81 87 99 75 66 93 81 48 56 78 76 64 79 82 74 93 93 89 81 77 69 64 74 53 40 36 34 49 30 29 39 29 28 48 39 44 33 15 12 17 29 39 50 48 23 15 16 17 20 16 15 20 28 17 12 16 13 10 11 9 9 7 7 
153 109 69 61 66 60 15 49 75 40 35 37 48 31 34 36 63 44 48 60 107 90 94 76 80 93 102 115 111 133 115 76 64 67 77 80 107 96 90 92 65 73 82 101 125 100 102 112 93 88 89 58 52 44 49 59 63 58 56 68 69 62 73 69 85 85 80 84 103 94 89 80 83 83 88 94 110 104 99 135 157 135 125 112 134 110 103 107 124 114 132 120 100 111 118 89 80 69 65 99 109 126 125 102 77 111 82 107 78 94 97 102 89 62 42 60 79 91 55 67 69 91 96 85 93 89 92 78 84 59 47 65 47 34 31 31 28 24 22 21 28 39 36 18 16 11 35 38 51 50 31 19 31 20 39 43 28 20 29 42 25 35 19 17 15 10 8 9 9 12 
114 111 88 70 57 27 25 15 52 35 61 35 40 28 33 35 34 38 72 70 69 71 77 70 70 86 92 98 113 133 100 91 70 58 64 77 105 96 86 71 62 77 98 110 95 80 109 107 76 67 62 51 45 46 51 63 70 74 54 74 94 63 63 69 79 91 90 96 96 87 90 95 104 89 93 108 140 113 100 115 165 160 131 142 141 112 97 91 127 127 140 135 128 115 107 109 93 99 73 79 108 97 113 108 67 86 84 80 92 57 79 72 43 45 46 65 91 80 58 77 79 90 97 99 92 92 88 84 66 53 64 54 41 40 40 36 38 35 26 26 19 30 22 17 14 13 43 40 51 53 42 39 41 32 52 43 25 32 28 49 40 43 34 19 14 12 9 8 10 13 
103 85 110 79 71 41 37 35 12 37 61 40 36 29 55 60 63 48 48 55 59 80 68 57 68 100 71 89 109 134 94 80 73 56 75 83 105 80 71 59 68 105 99 102 74 117 87 106 78 65 52 48 42 67 70 62 67 73 59 73 67 67 79 109 96 71 92 93 84 84 88 98 99 99 129 139 132 113 112 135 163 143 144 168 140 120 127 94 110 107 104 100 129 121 109 101 99 88 94 61 78 81 97 100 91 60 65 57 50 51 51 45 45 45 61 70 80 94 69 79 95 101 102 99 87 78 70 64 59 73 72 49 71 50 69 62 56 54 41 36 33 21 18 17 12 41 48 51 53 53 51 49 54 50 50 59 41 35 38 60 52 38 29 30 20 15 11 18 14 15 
106 74 77 75 61 45 70 30 21 29 32 31 31 53 44 70 53 45 48 57 73 51 55 63 61 69 82 70 98 139 90 75 70 54 66 87 107 83 62 58 64 68 67 84 99 94 79 78 69 74 63 44 41 60 62 81 60 64 69 64 68 78 110 103 92 79 83 89 85 87 105 150 128 148 181 129 114 109 130 174 176 155 147 148 139 129 121 98 89 102 92 99 108 128 103 110 112 97 83 71 83 93 87 71 62 56 54 52 47 46 46 47 47 50 72 79 81 94 78 93 98 104 92 90 87 90 88 78 77 71 71 76 78 76 75 72 65 60 50 43 33 28 28 12 20 39 46 51 50 53 55 53 57 54 57 62 56 50 53 65 54 51 42 29 19 16 13 20 14 14 
80 75 66 59 51 49 50 31 21 36 19 30 45 50 50 76 57 46 60 42 54 44 47 67 57 60 63 68 114 119 109 97 70 49 81 79 98 85 67 55 77 69 68 100 115 105 92 74 81 65 41 48 49 82 67 79 72 74 66 71 77 109 116 110 89 89 79 88 94 93 100 100 122 157 155 148 131 120 161 162 163 150 154 182 132 121 101 94 103 104 84 101 90 87 73 77 102 84 64 58 76 80 80 57 53 55 69 89 66 71 78 52 50 51 58 84 81 101 89 100 104 100 83 70 64 68 70 69 84 85 83 80 74 77 68 62 61 52 38 34 28 22 22 15 20 29 37 47 52 51 59 58 63 65 65 65 67 63 67 67 63 59 50 50 29 20 15 20 19 15 
65 54 61 47 44 41 47 37 14 26 42 47 37 54 50 79 50 51 46 49 47 48 49 52 54 57 65 93 92 107 100 78 68 46 49 70 51 59 54 67 84 71 80 90 113 98 96 91 97 70 62 42 47 58 71 80 77 65 72 77 102 111 123 103 89 82 83 92 130 115 110 105 131 154 140 127 120 154 189 152 123 117 107 116 113 104 88 87 77 74 72 81 74 69 65 64 63 62 67 59 57 55 55 56 58 83 98 99 100 93 66 67 82 60 61 75 92 100 101 95 96 85 72 79 53 56 49 57 80 85 78 79 70 77 72 70 55 51 46 31 28 30 15 18 21 30 40 48 53 53 59 62 65 57 60 61 61 70 72 69 72 63 61 60 61 54 20 18 20 18 
95 67 46 44 35 34 37 42 11 30 35 43 43 46 52 55 48 62 44 38 48 54 46 54 58 65 110 101 80 89 120 85 57 44 48 48 46 47 57 61 84 71 78 100 108 96 78 59 75 63 61 41 45 45 59 87 73 67 79 76 88 119 124 111 90 100 94 93 103 110 109 114 137 152 149 142 158 178 179 201 170 146 130 122 114 97 116 122 98 122 94 70 74 76 82 74 70 65 104 93 75 65 62 63 96 92 103 100 101 79 86 78 66 78 77 91 95 104 88 69 79 79 59 49 38 38 37 53 81 79 80 77 73 76 71 60 60 48 40 31 24 20 14 17 25 24 27 41 37 37 49 60 64 62 51 53 61 61 66 60 68 64 60 44 40 27 17 14 11 6 
84 61 51 43 35 45 55 29 10 24 30 30 33 33 49 44 43 76 48 36 44 53 63 57 55 71 89 80 73 75 121 81 49 45 40 48 66 56 62 97 91 69 76 60 69 96 66 50 51 47 56 41 46 53 59 57 59 67 81 89 109 112 125 115 84 113 100 122 110 104 105 119 155 139 198 196 183 180 179 185 150 158 139 174 114 104 148 107 126 120 109 89 74 89 83 88 73 66 65 88 99 106 85 99 104 93 106 110 91 84 95 80 81 83 100 97 105 90 73 59 53 39 45 55 53 48 36 77 84 74 72 77 64 58 73 68 57 39 31 28 27 19 15 21 30 28 25 24 26 28 35 51 66 62 58 50 47 60 61 50 60 46 51 49 50 43 18 13 11 7 
49 51 51 53 45 51 56 35 34 14 33 45 41 38 40 51 40 58 35 43 46 45 59 43 54 59 65 61 64 70 122 72 53 36 55 71 81 61 65 95 93 70 60 43 50 74 41 34 40 38 37 46 46 52 67 56 58 67 87 107 120 101 122 94 90 99 110 98 97 101 106 118 145 138 135 158 188 170 158 164 143 133 119 120 103 160 164 157 155 129 133 98 85 95 84 90 76 77 72 72 80 91 90 97 88 103 111 110 103 102 88 78 91 97 105 106 100 88 76 49 39 60 82 81 69 38 51 69 86 82 70 59 72 56 73 60 49 43 32 31 25 17 18 25 47 48 41 40 40 30 44 51 66 66 63 58 57 43 45 44 44 39 34 29 30 31 19 14 15 10 
34 51 30 43 42 58 50 31 30 18 29 49 74 51 46 45 56 52 32 43 35 34 43 44 61 52 65 58 53 94 105 74 67 42 80 59 56 96 106 76 59 48 62 40 44 44 39 43 45 41 48 46 42 48 52 81 83 97 100 114 123 130 103 93 90 90 95 102 106 113 109 131 154 131 127 153 179 172 159 150 160 139 127 121 136 130 119 109 101 98 90 113 92 121 91 95 84 80 78 89 79 73 74 80 82 90 106 111 112 105 101 91 108 105 93 90 95 84 68 41 47 66 88 56 48 50 36 55 83 68 60 66 73 57 54 46 38 40 31 30 20 17 20 25 35 60 59 54 34 47 38 49 58 70 70 61 61 59 46 40 27 24 30 30 19 21 19 20 10 15 
25 27 24 31 33 38 50 30 25 13 24 73 63 63 57 48 59 50 30 39 32 30 44 46 57 55 62 78 58 74 79 82 65 41 40 48 74 75 91 70 46 46 74 40 39 34 43 52 47 43 46 48 51 49 58 95 109 110 114 125 134 118 104 96 95 95 94 104 108 120 131 143 167 138 121 161 162 160 170 150 145 179 182 137 171 162 151 145 139 119 127 136 115 137 110 134 107 83 84 97 80 90 92 93 94 93 86 101 106 102 109 112 105 96 80 77 75 85 53 61 68 82 69 32 42 35 34 79 81 73 55 42 61 68 63 60 44 39 34 30 19 15 16 19 25 31 52 48 38 57 59 60 60 72 74 72 62 52 45 49 37 24 18 17 15 12 12 10 9 17 
44 51 38 19 16 15 25 25 22 14 20 46 55 49 46 41 50 45 32 38 29 26 26 40 61 51 71 97 65 66 59 69 59 37 38 47 59 56 77 44 40 48 45 32 32 49 46 52 45 49 53 56 91 51 83 100 110 110 119 123 101 102 115 102 102 109 103 102 111 140 141 157 139 140 118 155 154 152 160 141 147 169 164 155 150 166 162 154 156 152 133 150 134 136 135 132 110 91 116 103 93 94 111 100 111 109 99 99 102 110 110 101 92 77 69 77 60 73 54 50 59 80 80 63 32 45 42 46 58 71 44 56 32 62 60 54 43 29 35 17 16 21 17 18 22 24 31 43 61 63 60 72 68 72 79 75 71 70 64 63 50 30 30 21 18 18 17 12 12 16 
47 28 43 45 33 25 15 11 9 14 30 32 68 45 41 40 51 52 27 34 26 25 30 36 46 44 56 74 91 62 70 49 36 39 34 49 50 47 39 34 34 42 33 50 36 47 48 53 50 64 92 113 83 52 93 88 89 121 122 99 87 85 91 101 130 119 113 125 126 131 130 123 118 154 127 146 170 135 134 147 182 179 174 168 142 144 161 155 138 149 140 160 139 136 126 136 129 121 124 123 122 123 124 120 120 116 110 111 114 109 100 99 83 72 48 49 49 62 46 51 63 83 88 57 56 45 35 31 38 55 39 35 29 37 47 46 41 24 19 19 18 30 18 18 22 26 64 55 52 48 57 68 60 70 78 78 74 66 65 75 70 48 32 29 29 21 15 10 10 12 
64 50 55 49 39 42 47 40 20 12 23 29 40 53 37 35 46 42 29 43 27 25 29 35 39 44 61 102 85 77 49 42 36 35 26 27 29 34 29 37 44 34 40 47 64 36 55 60 58 81 112 113 76 54 107 69 108 122 88 88 80 90 97 105 154 190 141 139 132 118 113 113 112 111 117 173 150 166 136 148 164 156 173 160 159 130 150 152 133 141 133 124 114 130 121 127 134 124 125 119 110 109 113 124 125 119 115 107 105 99 98 76 74 68 47 63 61 50 43 79 81 91 83 60 51 54 40 30 31 75 36 32 31 29 31 31 31 26 19 26 19 29 19 20 28 63 60 51 39 45 53 63 67 69 77 78 68 66 42 33 37 63 48 64 58 55 11 18 13 15 
126 67 60 44 39 39 39 29 20 13 22 27 45 47 44 40 47 35 24 37 30 23 27 34 44 48 69 97 100 59 48 40 29 25 35 40 45 34 38 54 72 42 40 47 79 45 51 75 70 94 100 81 88 58 67 73 67 83 83 80 81 88 97 106 142 157 169 161 145 128 125 114 109 113 145 147 149 122 170 150 129 153 146 152 160 143 126 135 130 122 133 130 110 107 116 99 103 120 110 110 88 101 94 117 120 112 98 91 74 83 89 70 48 48 48 81 80 87 90 85 89 75 79 70 50 39 32 41 33 34 31 27 26 22 23 23 20 19 27 31 20 22 19 25 63 63 57 52 46 66 72 74 70 77 76 81 75 44 36 33 27 40 30 27 23 18 11 12 20 22 
129 77 57 55 45 46 35 37 24 12 20 24 39 48 45 37 40 31 23 32 26 23 33 40 48 55 93 113 81 60 49 30 25 52 52 44 37 49 38 41 46 40 45 46 53 47 50 51 80 117 134 102 95 96 71 90 84 80 78 87 88 92 103 120 132 130 146 129 156 159 111 106 106 144 140 131 161 117 151 128 130 134 140 145 160 141 138 117 113 106 98 112 103 90 97 108 100 86 98 86 78 77 86 103 109 120 112 91 83 69 69 58 67 63 59 66 80 90 99 103 87 70 60 45 56 54 30 32 30 25 24 23 24 30 23 22 23 29 36 34 22 22 29 39 65 52 50 39 48 72 73 71 58 58 75 78 47 35 28 25 29 20 21 20 16 13 13 35 22 18 
144 98 76 58 49 41 41 37 32 11 20 29 55 46 41 35 29 43 35 19 32 21 35 45 72 65 117 115 65 42 36 26 60 38 37 40 45 49 43 40 41 43 48 51 50 61 59 45 69 80 88 88 111 100 93 84 112 98 83 89 99 99 121 175 144 130 122 121 173 144 131 109 101 119 131 116 115 116 127 131 163 145 150 168 151 132 148 140 146 126 109 92 103 100 85 84 82 86 80 80 74 72 93 100 120 120 110 104 79 61 51 52 79 79 84 87 99 92 101 100 84 68 61 47 59 36 27 26 31 29 26 24 23 23 24 24 26 30 53 32 25 22 23 60 63 36 52 34 43 72 54 49 47 59 47 33 29 22 19 18 21 19 16 15 15 15 16 14 17 21 
173 146 99 59 40 36 32 40 14 11 18 32 39 30 31 45 20 24 22 27 25 22 26 29 52 41 86 71 54 57 26 25 55 36 48 55 53 47 50 42 45 45 50 57 59 59 73 69 45 49 81 100 107 108 110 103 103 122 99 93 99 121 198 206 174 195 151 113 118 159 144 106 107 107 108 124 115 123 124 146 166 157 156 160 151 149 128 119 133 129 98 115 113 93 99 118 98 81 77 88 79 69 78 94 107 109 99 102 100 73 54 62 86 90 96 99 101 89 97 94 90 83 57 65 40 39 31 27 35 31 27 26 26 26 25 26 30 48 49 36 26 24 23 26 26 27 42 37 44 52 42 40 45 33 23 22 21 22 22 20 18 16 16 16 16 16 26 20 20 25 
174 287 170 61 40 34 24 19 9 13 13 26 29 32 25 45 27 20 43 46 17 22 17 25 28 23 30 33 43 58 29 29 46 37 37 46 54 58 48 45 47 49 59 67 68 63 69 79 65 62 62 75 97 84 79 84 85 94 101 102 118 212 201 155 151 162 159 118 106 150 128 102 98 139 132 175 143 124 128 150 163 151 130 140 137 124 111 120 108 106 120 134 105 110 125 125 104 89 105 109 96 69 68 88 98 110 102 88 93 80 53 53 55 65 85 81 70 72 90 92 82 74 82 57 60 39 36 31 28 30 29 31 31 27 27 29 37 63 41 40 27 29 25 24 27 27 30 35 45 36 37 41 30 25 24 24 24 24 24 20 20 18 18 19 18 19 24 22 26 29 
161 266 160 69 41 35 25 35 24 14 13 25 25 26 20 34 31 19 42 21 17 25 24 18 18 19 33 30 52 35 29 36 35 35 37 49 66 70 52 49 54 58 168 97 80 71 77 74 65 58 56 70 63 74 70 90 90 89 96 109 149 210 202 185 191 153 161 156 104 132 149 106 96 142 148 142 155 146 137 162 150 137 134 126 116 125 118 136 135 134 127 109 110 127 138 120 114 121 115 104 81 76 68 76 94 101 95 80 97 87 71 56 56 57 93 70 79 88 88 101 81 95 74 81 69 42 36 30 30 2 29 32 31 30 32 36 57 71 39 32 29 35 30 25 30 31 32 35 37 46 28 27 27 28 26 26 25 26 28 25 19 21 21 20 21 24 30 25 30 37 
145 231 157 69 47 43 27 25 27 17 13 46 23 20 14 22 51 21 16 22 42 29 36 38 26 38 39 46 32 23 45 30 31 35 37 44 48 58 77 57 59 70 99 105 97 97 92 85 83 70 71 72 70 100 79 81 90 95 101 115 197 160 160 188 178 169 158 151 135 103 135 98 95 111 115 125 155 178 163 169 169 163 155 150 140 121 139 145 144 144 129 108 130 129 151 125 125 121 111 103 91 98 82 66 81 90 82 91 88 69 59 58 55 55 68 74 67 85 89 100 101 101 100 87 60 40 35 32 35 34 30 34 35 36 42 66 83 67 63 38 33 36 29 26 34 33 39 43 47 40 32 29 35 32 29 30 27 28 29 28 30 27 26 27 29 27 36 30 33 36 
128 191 119 64 46 35 26 22 27 17 11 45 22 18 14 14 27 18 31 15 19 26 31 37 27 29 36 43 29 32 44 33 35 40 40 46 52 54 59 82 67 82 175 204 156 162 120 87 78 72 74 70 86 112 107 86 93 103 115 134 190 187 140 171 152 133 125 129 142 112 120 92 96 104 120 152 143 155 161 171 169 155 147 131 135 134 153 145 139 141 130 130 129 132 154 129 134 122 114 106 89 90 82 78 64 75 67 89 79 59 58 61 55 58 61 63 72 93 102 102 106 104 97 59 51 40 35 33 40 38 37 39 39 43 74 81 63 49 49 47 37 38 35 27 33 43 37 52 38 34 33 32 43 34 32 29 29 30 30 30 33 36 42 39 40 41 34 39 40 48 
127 210 112 61 45 38 31 24 21 17 29 24 16 17 20 17 19 14 15 15 34 38 45 51 40 45 36 34 32 28 36 38 36 45 47 51 54 58 63 76 79 152 180 248 228 216 114 89 73 70 85 65 100 87 87 87 101 113 156 181 196 180 139 167 160 156 149 116 140 132 91 92 102 157 150 135 132 134 127 128 156 164 161 158 153 155 140 147 132 141 143 142 155 149 142 125 120 113 107 103 100 86 71 89 69 64 64 72 59 66 71 65 59 56 70 72 91 99 107 105 110 101 76 47 41 35 36 39 37 48 45 46 70 80 89 79 73 63 48 43 40 42 36 28 34 38 46 53 37 37 36 37 44 49 45 44 36 37 36 41 40 52 49 51 54 42 50 52 50 61 
132 208 112 66 49 30 24 22 22 14 13 19 14 18 18 15 14 32 26 40 58 86 83 60 49 51 35 30 33 34 48 37 38 44 53 56 62 67 78 106 123 147 171 234 180 193 111 89 78 79 80 62 70 73 80 100 132 151 178 202 218 172 162 153 146 155 151 116 140 106 93 93 99 136 119 130 120 121 120 125 137 151 154 138 143 148 138 128 132 141 145 149 148 146 139 122 110 114 109 110 98 89 74 70 65 71 69 61 69 80 90 68 64 57 67 80 72 79 101 110 112 70 56 44 42 42 44 43 46 49 55 61 79 76 69 77 78 77 68 59 47 42 40 30 38 43 58 45 39 38 39 42 49 50 45 49 44 50 50 52 53 56 101 70 48 53 59 63 90 93 
156 256 89 63 51 35 41 40 41 15 11 20 15 14 18 28 15 22 41 96 215 248 132 85 68 49 46 31 37 42 47 44 63 47 58 60 71 86 138 182 149 133 149 165 156 142 101 89 86 96 72 71 78 82 98 134 122 160 174 210 168 176 159 150 131 141 152 113 144 112 99 91 91 124 99 122 118 103 122 139 131 153 156 149 136 127 124 128 118 134 144 149 149 140 115 105 100 114 110 89 97 84 77 65 72 80 90 81 83 99 93 81 61 62 60 64 68 72 78 89 112 58 49 44 47 47 50 49 58 60 86 107 104 90 86 74 53 64 57 72 50 38 32 31 45 57 70 46 48 46 38 45 50 54 72 53 60 60 68 80 69 84 97 60 65 70 80 83 117 114 
192 268 84 58 49 28 27 23 22 31 14 14 21 12 21 41 22 16 61 226 253 259 272 166 77 54 47 42 61 57 49 47 52 75 69 77 111 117 194 179 150 130 118 120 150 158 132 101 110 86 97 64 83 102 203 127 107 131 161 212 211 153 149 150 140 129 137 111 126 134 127 92 87 95 94 95 113 121 155 144 116 145 145 144 141 123 118 120 130 134 137 139 141 130 118 102 98 110 97 90 81 71 68 66 85 92 79 72 86 105 104 90 63 60 60 60 62 65 78 90 104 60 48 49 54 61 60 64 75 111 113 117 107 97 93 83 68 49 43 39 34 38 33 36 46 58 50 44 50 44 55 48 64 55 73 72 70 89 106 115 119 110 86 67 83 67 89 109 130 130 
192 167 83 50 34 29 25 31 20 19 14 11 17 20 25 35 17 14 43 144 178 177 230 221 111 47 43 38 45 47 47 51 55 68 80 98 227 234 185 158 150 127 110 112 149 116 116 101 95 94 87 69 92 114 213 130 110 153 156 180 207 178 148 126 134 120 124 122 134 131 123 122 99 85 100 118 147 150 155 149 140 116 145 143 118 119 133 130 129 132 130 116 140 140 129 103 89 99 105 92 90 72 67 73 82 93 89 86 77 94 98 102 64 67 64 63 70 68 74 77 88 101 62 109 99 125 103 99 111 105 83 97 80 81 62 50 44 46 49 41 51 48 36 32 38 37 40 45 52 69 58 91 87 67 83 92 108 89 131 120 106 90 78 77 99 86 105 129 131 108 
157 120 72 43 39 30 53 18 19 41 18 9 12 20 51 27 14 30 36 56 66 106 143 104 56 43 44 45 39 50 52 57 62 70 88 113 198 237 218 231 180 175 113 102 126 129 106 90 80 72 72 91 91 112 108 89 161 135 138 136 151 202 159 158 130 125 109 103 97 97 109 110 114 85 113 117 110 120 148 150 138 130 110 142 105 122 121 130 119 124 124 121 133 127 129 120 110 104 82 97 82 70 78 98 76 106 99 87 75 79 91 90 70 64 81 73 77 78 77 79 76 81 96 109 108 113 100 83 89 74 67 79 58 58 50 56 71 46 47 63 52 48 38 39 40 46 44 45 56 52 58 58 76 80 87 108 127 117 162 158 126 108 97 98 107 110 98 124 119 123 
140 117 78 37 21 18 16 15 27 18 16 13 10 31 31 12 15 32 29 38 49 55 59 40 43 47 57 49 43 54 57 64 79 150 98 189 298 272 281 249 222 164 119 99 99 94 89 83 116 113 79 81 77 87 92 88 97 111 112 134 158 170 168 170 145 139 135 162 119 115 114 94 111 99 84 104 137 144 133 146 132 116 119 103 101 121 121 120 114 118 113 109 108 121 109 111 106 90 89 75 69 86 80 99 78 96 114 89 96 89 91 91 76 65 80 79 78 85 84 87 89 81 93 109 99 84 78 68 64 61 60 57 63 57 67 75 67 45 68 66 53 48 45 42 46 47 49 47 69 70 90 90 68 80 80 90 139 150 145 141 152 157 151 137 128 141 121 139 135 140 
103 84 62 32 21 18 18 15 20 28 27 18 8 27 25 12 30 24 26 29 33 30 31 34 49 88 80 57 46 54 70 74 100 172 120 198 309 260 284 266 195 165 122 122 164 100 106 94 120 96 88 98 90 103 131 134 112 172 164 169 156 167 174 193 174 151 122 109 112 101 98 92 94 100 83 95 132 114 141 139 140 140 132 122 105 100 97 98 107 103 114 101 110 98 108 116 100 77 71 81 89 100 88 81 89 89 106 110 91 89 90 76 74 67 67 77 87 104 123 122 87 102 118 121 107 101 94 78 74 62 59 70 69 60 57 59 49 68 84 75 68 51 45 40 46 66 58 56 60 78 66 79 75 85 86 120 144 154 140 131 148 145 140 127 133 128 138 130 119 134 
83 58 48 33 27 17 31 16 28 29 37 51 13 8 26 13 14 20 21 25 27 27 36 36 52 160 133 65 55 59 72 89 185 253 180 259 311 283 270 254 191 159 204 213 152 125 119 114 125 99 89 117 122 142 200 141 139 155 183 185 170 162 179 175 178 138 133 120 119 112 114 110 90 82 82 89 106 146 136 119 136 128 132 121 125 120 110 103 95 98 101 91 103 91 100 108 79 74 82 98 105 109 104 99 99 117 110 111 104 90 90 89 78 68 72 96 163 159 127 99 97 113 131 119 105 100 109 99 73 64 73 83 61 57 49 48 46 52 57 58 48 49 46 50 50 69 71 82 72 60 67 81 89 99 102 102 134 157 142 123 128 135 136 121 110 130 135 134 118 129 
50 53 41 46 52 15 17 17 25 42 42 35 28 9 10 14 16 19 21 22 25 32 43 41 49 69 76 58 61 81 74 109 208 301 267 282 294 253 222 234 212 203 249 172 140 130 135 136 129 132 118 99 97 120 140 186 149 213 199 167 161 136 163 129 120 112 110 101 123 124 113 87 86 89 85 99 142 133 122 114 111 118 129 135 132 121 124 121 115 109 111 108 97 100 79 77 79 82 95 85 94 111 117 123 113 137 126 119 96 107 97 88 70 68 79 120 151 137 128 106 110 122 119 103 89 90 93 78 70 78 89 75 60 55 52 49 50 51 55 53 49 54 50 45 52 73 70 76 78 69 75 102 126 137 139 137 145 141 133 121 131 128 118 114 110 123 129 118 111 116 
46 36 39 36 27 17 16 35 36 46 40 20 15 12 12 13 15 17 19 26 28 94 55 56 47 50 55 65 61 81 99 137 212 292 273 277 243 236 254 206 255 243 186 146 135 127 130 128 127 129 129 103 104 112 110 120 167 230 220 176 157 147 136 129 168 120 121 118 110 99 99 114 124 95 79 95 103 97 107 125 131 131 130 130 122 120 121 121 117 117 115 110 108 114 100 100 76 77 82 95 116 121 125 140 144 131 121 108 117 96 82 80 80 69 80 124 151 140 120 131 120 129 134 106 95 91 86 72 78 81 89 62 60 56 59 71 56 61 62 57 59 68 57 47 78 85 81 88 99 82 135 98 130 139 136 127 141 141 126 121 111 132 121 104 99 112 121 135 131 106 
76 39 39 27 23 15 18 28 25 17 15 12 10 23 17 15 16 22 26 32 35 127 196 61 51 60 60 124 64 74 86 122 231 255 237 278 254 235 198 237 245 253 167 140 133 127 122 128 134 138 135 169 201 186 167 174 220 217 213 199 190 166 143 128 167 168 166 109 116 145 137 126 109 115 78 91 107 120 112 113 118 123 122 116 115 117 115 115 115 115 110 113 108 115 112 93 78 89 110 109 105 105 123 134 138 128 114 117 99 100 89 90 90 69 85 144 154 139 130 136 138 152 152 136 111 110 93 80 89 101 69 65 61 63 66 64 59 60 97 75 62 60 60 49 57 74 94 94 98 130 147 140 134 130 121 126 133 136 124 113 99 119 124 114 99 115 130 132 118 130 
61 50 38 27 21 24 25 19 18 36 9 8 18 18 17 15 15 22 30 37 41 79 88 119 69 77 96 96 71 87 110 179 245 241 254 302 250 231 192 195 239 245 189 138 133 128 120 124 138 137 145 155 213 234 205 187 183 189 177 168 183 194 194 171 160 116 109 112 98 93 109 112 82 99 76 88 100 136 140 130 121 113 115 106 111 109 110 106 99 106 98 110 110 109 99 79 91 107 100 108 95 99 107 113 130 136 128 126 115 120 102 99 74 70 91 158 140 146 139 147 147 152 140 126 144 121 99 82 99 86 80 83 69 76 83 76 72 69 127 122 73 57 62 58 56 72 71 83 98 140 135 141 134 130 124 123 109 136 146 131 111 110 115 120 89 115 126 123 115 120 
32 27 34 23 24 28 27 21 29 10 7 10 15 26 16 18 17 19 28 43 52 63 89 142 179 207 181 93 87 138 139 271 280 231 243 268 253 242 218 205 204 215 214 147 137 135 118 128 140 143 151 182 234 218 160 151 184 219 199 219 212 205 193 177 135 125 125 111 102 99 108 98 105 109 77 124 129 129 130 124 116 110 111 112 101 99 102 99 106 91 97 103 95 99 86 78 88 92 85 88 92 100 112 119 118 125 149 132 136 112 102 90 91 78 78 113 139 130 130 129 130 132 141 128 145 118 107 85 95 88 82 150 86 151 148 110 123 168 136 115 90 77 84 61 82 58 85 101 130 133 138 134 112 98 93 103 123 139 140 124 111 93 109 119 91 111 118 124 98 120 
25 20 35 18 25 34 79 41 25 5 6 28 14 13 17 20 25 27 31 37 47 60 175 249 171 215 144 89 124 261 193 260 242 258 222 273 244 210 187 201 182 172 212 178 161 132 120 119 134 168 225 228 204 169 136 172 217 227 220 211 205 191 166 163 182 180 161 145 150 146 140 144 133 76 92 130 126 119 121 116 111 107 105 100 100 110 100 95 97 89 97 105 89 95 79 79 84 80 87 101 100 110 105 113 122 128 142 148 140 117 112 109 89 91 74 92 98 109 133 110 120 117 133 118 128 151 117 90 100 150 154 151 133 146 149 139 140 161 155 105 101 84 71 79 84 62 89 100 107 119 145 139 132 113 98 121 128 128 138 109 98 92 114 121 88 103 119 113 101 112 
38 21 20 27 33 48 57 24 5 6 20 24 9 8 18 20 23 27 34 42 52 65 103 178 224 158 115 97 117 232 272 227 233 248 202 262 229 208 184 189 211 204 157 190 190 137 122 115 120 134 211 189 152 134 140 182 194 221 212 202 178 164 182 174 151 162 160 154 148 128 140 147 124 75 96 131 132 122 120 122 120 119 116 110 101 98 105 96 88 88 87 91 86 80 80 90 86 90 87 84 88 110 114 117 110 120 118 139 142 142 121 116 106 112 88 79 103 109 121 98 100 139 109 106 118 135 111 94 110 161 141 141 129 129 154 146 140 159 161 126 112 85 81 79 69 74 78 95 113 128 140 120 120 109 85 102 123 132 132 126 116 96 109 110 78 114 120 113 93 99 
40 20 20 24 20 52 21 19 3 6 8 8 9 21 17 20 29 29 34 39 51 60 111 282 225 173 162 163 99 178 292 229 258 201 209 232 249 221 176 185 229 216 181 197 222 154 131 122 113 134 166 187 134 125 137 156 213 210 200 204 174 179 169 172 154 149 135 142 137 113 151 141 121 76 90 129 128 123 117 113 112 111 99 95 92 85 89 92 93 88 90 85 83 82 83 95 86 100 108 95 88 88 90 92 100 101 107 119 147 136 146 148 132 107 112 105 82 93 98 91 93 94 102 122 130 134 120 104 108 134 146 139 131 129 158 140 137 152 141 153 133 116 142 97 78 92 90 90 108 132 140 126 99 104 89 114 123 128 109 130 123 97 75 105 82 109 110 99 88 110 
27 18 38 27 21 47 17 6 2 49 8 11 16 18 23 25 30 37 38 40 47 62 112 301 283 265 288 186 129 153 299 249 238 208 191 214 231 220 220 203 218 213 152 204 214 175 179 145 124 119 130 154 129 146 191 213 215 201 199 163 183 169 139 166 163 154 151 142 118 112 131 134 119 90 78 120 118 114 111 101 101 97 91 89 85 79 79 88 113 99 89 89 90 88 89 85 91 99 121 112 88 104 97 96 118 108 115 145 140 131 144 132 130 129 113 112 85 92 87 98 102 122 119 117 115 109 104 120 128 127 128 128 120 126 135 180 157 126 117 149 138 152 147 105 88 105 110 100 95 126 128 124 99 81 112 120 118 124 104 119 118 121 112 72 77 109 115 108 88 96 
22 19 15 16 30 70 9 30 72 25 16 21 20 20 27 26 31 37 40 47 68 65 86 163 320 311 255 284 155 235 277 249 226 242 181 210 240 220 196 199 183 222 154 164 154 136 127 118 120 108 119 117 123 169 174 177 185 201 192 192 178 155 129 134 144 139 134 145 144 119 108 127 96 82 114 114 111 105 101 92 98 89 86 83 79 74 72 74 80 90 80 91 83 88 89 97 99 107 110 94 91 102 98 98 107 110 130 150 142 122 134 132 119 129 133 99 83 84 94 99 108 129 116 99 101 98 115 131 124 120 117 119 112 111 129 169 168 153 117 119 151 133 131 146 134 90 119 100 90 108 113 109 100 84 118 111 121 120 101 121 112 117 111 73 100 112 117 119 101 80 
16 20 19 30 29 81 10 15 17 16 17 19 22 27 34 27 44 41 48 51 59 67 89 156 301 265 266 219 197 247 279 250 230 192 194 192 171 187 195 211 149 183 140 140 157 211 165 124 115 110 111 111 127 129 172 194 174 157 163 170 174 177 166 143 132 122 142 140 136 127 100 113 79 90 111 108 101 101 96 90 92 86 81 78 72 70 68 70 70 70 72 72 79 102 86 83 93 121 100 94 96 100 121 102 104 120 132 116 106 124 133 138 118 120 131 119 82 90 90 94 95 94 93 92 95 142 137 129 140 129 130 122 121 120 146 164 160 158 163 123 107 137 111 140 138 123 89 110 90 95 110 95 103 111 103 112 89 106 101 111 98 120 104 81 77 94 112 111 89 82 
15 12 12 24 39 48 26 12 11 12 15 20 22 22 27 30 49 54 55 58 64 70 110 234 281 234 264 234 187 268 269 263 238 244 237 218 178 150 191 196 188 138 136 139 171 214 151 125 123 114 104 113 114 127 169 189 143 121 138 117 149 163 161 161 151 141 109 131 127 120 94 115 107 69 101 100 100 90 93 89 77 80 73 71 67 66 64 64 65 67 67 66 70 86 75 77 114 130 114 113 106 109 115 111 120 143 112 99 110 136 128 117 103 119 103 86 89 84 98 110 88 90 94 106 146 144 141 141 138 137 138 131 128 116 159 148 154 155 151 149 131 97 112 118 139 131 112 97 97 86 97 80 95 85 100 112 98 95 108 83 109 122 104 92 62 100 114 111 84 81 
32 22 21 10 4 9 16 6 10 10 14 19 23 24 39 35 48 48 60 68 66 102 100 190 257 198 243 250 192 279 259 251 260 243 223 209 226 181 202 139 163 139 135 136 168 176 159 130 120 111 109 104 124 125 179 191 142 99 103 99 109 155 168 149 145 140 109 98 124 118 104 113 101 67 80 102 92 91 89 83 79 70 68 65 66 67 66 67 64 65 64 64 67 76 69 76 86 89 100 123 150 116 124 160 148 118 137 102 118 129 121 121 104 94 89 88 91 88 85 86 87 91 98 111 119 157 151 151 205 198 190 141 139 111 107 162 159 143 127 121 140 145 105 111 125 140 117 118 97 90 80 73 79 69 103 112 117 80 76 102 122 112 99 99 67 96 105 102 69 100 
38 29 28 42 31 18 9 9 9 12 14 18 26 30 29 38 51 57 65 76 83 88 89 181 180 162 178 199 218 221 251 248 212 215 190 242 229 210 206 192 168 132 130 136 188 240 216 164 152 127 131 103 109 118 161 134 96 88 93 91 118 140 161 149 141 132 119 116 115 99 107 110 89 79 95 98 90 82 80 75 70 69 63 81 76 67 69 65 63 64 64 65 68 72 71 78 90 81 95 139 111 102 151 111 142 134 124 96 108 135 122 108 102 99 100 98 92 89 88 88 90 93 99 108 119 146 182 170 160 197 184 166 169 160 120 110 154 161 148 147 122 139 135 114 101 120 125 125 121 120 90 87 80 69 81 101 87 99 99 105 110 108 90 96 66 93 98 76 85 78 
17 30 42 29 24 15 10 9 13 16 19 24 38 55 40 45 50 60 77 93 105 99 162 121 164 197 193 164 182 219 228 267 253 239 199 228 219 202 182 172 207 138 125 133 193 231 207 182 171 133 119 121 98 135 138 91 105 130 144 119 89 129 150 149 141 125 124 114 88 83 95 103 77 65 97 89 79 77 73 69 68 64 61 65 67 68 64 62 62 62 63 65 66 80 77 80 74 79 90 87 86 89 95 88 96 98 89 85 105 117 121 125 124 124 113 109 95 91 89 88 92 100 97 106 128 192 210 214 180 155 171 174 163 157 164 119 144 132 145 142 129 109 129 122 83 112 121 115 125 111 111 118 107 79 70 63 72 92 79 115 83 96 80 60 89 86 97 72 78 81 
9 15 19 24 19 5 1 9 13 20 22 27 42 83 53 56 63 74 96 196 273 167 248 230 269 268 190 165 183 206 215 229 241 222 186 230 210 168 167 181 202 152 125 131 163 211 214 195 184 128 115 105 100 107 94 108 131 180 164 141 98 121 138 135 128 125 120 110 108 80 100 100 79 65 73 83 73 70 70 67 68 59 60 64 62 60 61 64 64 64 65 66 66 70 74 69 72 77 84 80 78 80 80 78 90 79 100 105 117 93 96 98 101 89 93 95 95 100 91 90 93 100 126 113 142 230 209 191 177 169 173 153 164 160 148 151 104 133 141 140 131 109 97 82 80 85 106 104 121 111 93 97 104 100 78 81 61 63 93 87 88 86 95 62 84 83 90 66 76 90 
19 8 6 18 8 0 9 13 15 23 27 30 37 42 51 64 71 106 249 201 261 252 236 279 236 258 223 169 191 208 201 221 257 232 202 169 181 155 148 151 197 211 129 119 135 203 202 184 157 163 130 114 115 112 123 142 172 167 142 130 109 81 107 124 120 118 112 110 99 91 97 89 75 63 101 94 70 67 67 64 62 59 61 58 59 65 69 69 69 68 71 72 75 73 70 76 84 83 87 87 92 78 75 75 80 89 87 79 76 77 80 86 85 86 88 88 95 102 97 94 104 127 141 134 149 213 194 181 177 165 140 163 148 157 130 152 141 94 132 121 115 121 125 109 123 102 102 85 107 80 95 105 119 111 98 72 53 76 79 76 57 53 67 79 78 73 84 70 77 82 
17 1 3 6 4 2 13 15 23 29 34 45 40 46 56 72 88 159 250 214 235 212 254 253 215 241 245 168 185 228 179 187 234 228 231 210 196 194 183 158 182 186 179 116 144 198 160 137 160 201 149 153 151 155 163 176 176 164 125 139 150 117 83 104 86 114 118 93 98 93 93 86 72 63 75 74 68 66 64 62 61 61 59 58 62 66 74 78 90 99 91 83 84 87 73 79 81 93 147 100 89 78 74 80 72 78 84 76 80 81 83 78 80 81 84 87 95 95 103 112 149 169 149 139 140 203 182 178 176 163 136 136 139 144 150 124 133 131 88 130 131 123 128 126 109 109 83 82 71 100 120 122 114 113 94 69 56 75 51 46 70 73 80 74 60 69 68 70 75 74 
1 6 10 10 1 20 13 18 54 94 38 50 52 53 78 73 93 172 279 272 207 182 245 245 213 226 261 212 145 195 195 241 226 216 188 199 201 191 175 128 139 138 155 118 145 174 192 178 120 191 191 198 184 181 180 164 181 163 159 159 141 140 131 87 92 73 103 98 99 87 84 80 72 64 62 63 64 63 61 60 63 57 58 59 60 66 69 114 127 149 102 96 88 80 77 79 80 86 119 88 127 89 79 70 72 78 73 75 93 86 85 79 80 82 86 90 94 99 111 121 153 231 207 156 134 190 179 178 163 145 162 151 121 117 139 140 129 112 117 102 121 107 117 112 90 97 109 105 72 89 106 108 89 89 78 78 47 70 40 72 63 55 63 63 48 59 73 80 79 67 
1 9 18 26 10 14 18 20 60 89 55 66 75 149 211 96 124 274 285 280 274 186 220 190 212 179 219 245 167 155 146 215 189 180 205 186 165 176 168 165 174 158 123 116 123 164 153 145 131 167 173 169 186 141 160 139 158 151 139 131 133 123 108 103 113 101 101 83 67 69 88 76 70 67 63 60 60 69 58 58 58 57 58 59 61 66 77 99 122 165 150 107 85 80 79 113 90 78 87 114 120 96 76 69 80 77 75 90 79 82 82 82 82 84 88 92 100 125 130 90 175 197 224 204 176 124 178 180 171 158 136 128 146 128 114 117 123 126 111 112 91 81 91 90 91 110 99 119 97 77 56 76 73 73 71 75 41 54 63 45 35 41 65 38 41 71 74 78 79 61 
7 8 18 35 14 17 24 24 34 49 130 105 132 203 242 232 239 275 243 240 268 251 216 180 173 162 179 245 247 221 142 138 166 178 199 188 184 175 157 176 179 180 159 156 110 124 109 108 109 133 135 149 149 144 142 138 139 131 127 117 110 113 107 108 121 107 98 93 72 100 102 90 66 66 64 61 58 59 66 62 58 58 57 59 64 100 99 85 94 118 161 126 88 88 78 124 74 81 91 90 77 72 68 75 81 72 74 79 84 81 83 85 86 88 93 99 109 117 123 140 205 150 217 197 190 180 117 173 169 157 155 150 129 144 139 114 118 129 115 106 119 123 117 105 107 75 108 109 104 85 75 70 53 72 75 55 39 66 36 38 64 33 38 65 70 69 69 71 67 65 
4 10 19 13 14 20 24 35 42 63 199 192 242 162 214 263 277 268 269 233 256 258 255 234 254 172 172 244 241 235 220 205 161 134 176 175 174 171 163 170 167 167 170 180 167 138 131 160 136 108 99 143 135 139 142 116 97 119 109 100 112 105 110 120 117 105 102 81 71 67 72 90 69 62 64 59 57 65 101 65 61 59 60 63 75 84 90 89 90 91 120 133 92 91 69 92 77 118 82 84 68 69 108 106 90 79 79 80 91 90 87 89 89 100 109 108 129 128 131 129 153 137 200 190 167 172 155 110 170 164 158 139 143 132 121 109 124 123 127 120 110 92 90 107 111 89 69 80 88 86 81 77 72 71 46 55 57 39 61 66 79 52 29 35 59 65 57 69 61 50 
6 7 10 10 14 21 29 40 53 107 157 220 158 168 261 224 263 240 243 250 266 268 238 189 248 209 168 205 228 224 207 194 155 158 158 163 171 159 145 155 150 158 160 170 156 159 147 138 138 130 132 99 128 95 92 102 89 91 85 103 101 94 95 114 90 92 81 74 67 89 67 64 61 58 70 67 56 57 59 69 75 87 88 65 69 68 79 79 81 80 83 82 84 115 98 69 119 76 68 90 98 110 91 82 92 79 83 90 91 94 93 93 98 105 118 141 155 131 140 142 122 188 190 183 159 156 161 134 123 160 152 139 136 118 100 101 96 110 125 113 102 124 88 100 103 89 82 66 81 80 71 80 70 67 69 61 61 63 69 71 91 58 40 28 59 60 54 34 36 37 
1 4 8 11 20 25 40 58 66 178 118 181 141 136 166 233 256 248 232 180 213 254 225 177 241 221 144 169 205 208 201 184 164 135 151 153 155 150 130 145 129 138 141 160 156 141 132 131 126 119 129 130 131 101 112 123 115 112 106 88 80 89 90 100 85 79 72 81 64 61 63 59 58 58 66 70 59 56 61 112 124 137 118 69 64 65 76 70 71 70 69 79 75 114 102 77 89 66 78 84 92 80 75 75 83 84 87 89 100 101 101 109 110 169 156 172 149 163 221 176 120 155 181 176 173 162 121 137 98 129 141 137 118 121 110 122 96 114 131 120 122 91 87 110 89 80 76 72 62 73 69 67 71 69 72 43 61 62 72 82 87 70 36 27 28 31 34 56 50 57 
9 10 13 14 23 32 92 117 138 190 113 133 126 254 245 247 234 238 224 199 237 235 239 171 220 219 140 191 189 192 181 162 164 125 145 137 154 139 135 134 121 136 151 150 156 144 130 131 116 123 119 120 119 120 117 115 109 100 96 92 82 81 97 79 78 73 71 68 66 62 60 66 60 57 59 67 66 61 61 88 95 114 111 81 64 68 69 65 71 68 65 71 76 96 121 89 70 67 83 82 81 71 71 80 80 79 82 88 100 104 110 109 132 171 218 174 231 223 206 176 142 117 125 174 157 166 146 141 139 93 135 143 128 126 133 131 118 85 124 125 111 103 86 99 81 75 73 77 72 58 70 71 61 65 49 71 69 71 73 94 80 53 36 30 28 60 50 67 46 65 
11 11 24 19 28 39 101 138 248 177 102 136 190 199 147 241 258 196 252 177 222 211 219 204 159 206 148 192 194 167 160 160 166 148 133 146 152 146 135 130 119 116 140 136 149 150 141 131 128 116 116 113 107 99 96 94 87 86 84 80 76 77 91 79 75 68 68 65 62 63 115 131 68 56 58 59 57 60 63 65 90 97 101 89 65 60 60 60 63 61 61 64 68 83 104 69 67 79 82 74 70 71 70 78 79 86 85 88 101 110 118 121 135 227 261 245 231 210 190 184 182 174 122 115 112 163 162 159 150 129 111 140 141 133 121 122 105 89 118 106 121 106 93 76 76 73 75 86 86 94 106 86 105 77 98 77 76 89 92 75 60 47 36 26 26 46 73 72 49 63 
12 16 19 30 40 53 65 103 209 133 84 217 96 198 238 262 256 196 226 198 223 213 172 200 188 184 175 157 185 170 151 157 162 147 140 104 143 145 135 131 123 122 121 130 131 138 135 130 116 110 106 103 101 94 85 79 79 81 77 88 80 75 74 77 80 72 66 63 62 69 95 141 130 63 55 59 60 56 85 103 101 99 88 127 77 68 58 61 58 60 60 62 65 68 70 64 71 71 69 67 69 76 82 79 81 85 92 96 120 136 144 148 150 173 197 233 212 190 180 181 170 173 164 155 119 111 147 131 129 120 85 140 130 129 132 128 110 120 85 101 108 94 100 80 73 72 84 82 110 120 110 93 104 81 104 110 89 100 74 79 60 58 29 25 27 43 71 59 69 80 
16 23 14 26 33 41 81 186 122 86 117 146 98 249 222 252 203 180 228 220 206 210 179 147 196 174 145 134 169 161 128 163 150 130 125 129 121 129 131 130 130 125 128 130 122 124 128 120 110 102 101 100 94 89 80 75 78 79 77 80 89 90 76 72 79 71 68 64 62 64 67 81 102 70 55 55 63 53 93 97 106 141 137 98 93 70 56 60 57 58 58 66 60 64 63 63 70 69 67 71 70 74 78 89 89 90 109 104 148 159 236 170 149 160 232 205 190 187 178 167 173 174 163 164 150 149 107 89 100 99 81 129 141 132 127 125 129 117 111 77 90 95 87 82 71 69 78 100 93 110 109 101 89 99 124 114 110 91 87 78 51 36 24 26 59 35 78 77 80 100 
14 26 31 18 28 39 118 85 58 56 58 110 231 227 207 225 221 172 223 213 155 202 186 155 168 179 165 135 159 152 137 138 145 137 129 133 123 99 96 119 121 115 112 123 109 103 113 100 94 94 94 90 86 84 78 71 83 84 69 72 73 82 82 73 70 70 69 65 63 64 66 69 77 91 59 54 54 60 70 80 97 102 149 105 87 67 54 56 59 66 65 59 70 70 72 69 71 70 70 70 71 80 83 83 88 101 111 156 203 189 240 201 153 220 209 195 183 179 171 171 146 162 162 146 135 126 139 150 104 142 87 98 128 119 136 114 121 113 99 100 71 88 82 79 70 69 79 90 90 96 118 124 118 124 108 81 104 99 84 59 38 30 23 27 58 49 49 63 106 90 
14 16 19 39 23 25 26 30 38 108 49 100 212 162 223 224 219 197 175 190 139 184 176 168 139 149 153 129 140 141 139 134 131 125 124 140 134 134 128 116 113 113 104 109 109 102 100 91 90 89 84 81 85 80 77 71 76 72 75 69 68 68 69 71 69 68 69 65 62 82 108 122 126 124 84 58 54 53 57 72 83 81 80 94 109 97 55 71 81 79 74 85 70 80 71 68 70 73 77 77 73 76 82 88 97 100 117 151 204 178 230 221 157 162 198 188 182 173 136 139 154 126 163 157 161 160 158 151 155 147 134 96 107 130 123 107 99 100 96 77 79 83 74 76 72 73 72 75 89 98 120 112 124 86 80 70 105 98 84 69 35 26 22 38 49 85 99 101 93 85 
21 21 25 32 46 50 51 90 105 122 104 154 172 191 189 180 178 175 150 123 200 185 171 158 155 131 117 127 136 135 123 107 130 120 120 121 120 120 122 109 119 110 109 111 104 87 88 86 81 79 82 78 75 75 73 72 70 69 70 68 67 66 66 67 67 67 66 64 62 79 106 116 120 147 112 93 59 53 83 71 69 70 82 129 111 91 58 62 69 99 102 91 85 85 77 74 77 81 81 84 78 80 82 88 91 104 127 246 220 179 211 166 199 140 197 182 167 138 162 121 161 150 162 162 161 161 149 154 149 120 132 125 72 123 131 127 98 87 84 73 73 69 68 67 75 83 114 90 89 88 89 121 113 93 96 63 94 77 52 41 32 24 22 27 85 78 66 67 62 58 
20 29 38 45 68 79 89 175 89 67 191 59 112 158 73 80 173 179 187 159 184 173 163 143 150 144 119 112 123 121 121 114 123 108 110 116 106 109 111 98 109 105 98 101 95 86 82 85 80 76 74 74 73 72 70 73 70 68 68 68 67 67 69 65 65 66 65 62 63 93 93 105 111 151 105 110 85 54 69 59 64 65 75 108 67 67 54 82 88 82 79 77 75 78 100 80 80 89 85 92 88 96 97 108 99 110 130 162 239 222 162 149 165 160 176 189 169 164 165 117 121 118 163 153 144 154 150 151 152 131 120 125 72 88 124 94 85 80 83 72 72 62 67 73 83 121 127 98 90 90 115 112 111 89 60 68 78 79 66 37 29 22 22 79 49 39 40 51 50 79 
34 29 48 59 214 190 114 187 92 119 207 182 160 189 192 185 182 174 178 169 139 151 150 139 137 136 126 108 118 116 119 106 99 100 100 104 99 101 105 99 93 87 81 83 80 78 81 81 75 74 74 74 71 69 68 69 69 67 67 67 66 66 65 64 65 64 64 62 76 87 96 95 98 97 126 106 93 65 64 67 69 66 65 76 61 53 81 78 68 79 66 68 83 93 100 88 80 86 92 99 107 110 124 126 111 134 162 233 221 211 201 203 200 170 124 184 177 172 153 144 105 155 129 162 148 116 139 144 127 131 104 114 79 93 119 97 80 79 72 66 63 86 90 92 104 100 88 83 93 100 101 124 113 65 61 57 60 85 60 40 30 19 20 25 29 32 43 68 68 98 
65 79 60 111 242 198 225 161 109 53 195 190 190 187 176 183 170 159 169 160 140 122 133 139 132 124 120 120 102 113 115 104 101 94 94 93 95 100 106 88 86 80 80 78 78 76 78 77 75 73 72 70 70 68 68 68 67 67 67 66 66 65 70 77 72 71 67 71 81 90 90 88 85 79 79 81 85 65 53 63 92 86 65 69 71 53 57 69 68 73 67 68 75 75 81 103 90 91 100 108 125 180 190 170 148 135 175 213 194 203 202 192 192 178 142 172 169 168 152 161 134 96 121 137 148 109 140 129 122 110 119 100 98 74 102 93 76 73 69 74 81 86 90 110 118 112 122 105 91 110 108 120 92 78 70 63 46 71 60 38 23 19 18 20 27 33 73 79 112 98 
46 104 209 153 139 233 188 113 99 89 66 107 172 168 162 169 165 148 160 159 154 138 115 122 121 119 110 112 99 109 111 100 96 89 92 95 88 89 100 82 94 79 78 75 75 73 75 74 72 70 69 68 68 68 67 66 66 66 66 66 66 68 75 91 91 89 81 78 73 80 82 78 72 68 69 72 69 60 51 63 83 78 66 78 53 59 59 60 61 65 68 73 94 82 89 116 106 100 112 120 143 246 210 195 145 131 194 201 184 188 146 130 183 184 169 126 129 142 161 161 164 160 131 86 135 92 130 106 105 119 90 96 90 61 102 94 73 61 62 89 96 73 91 121 125 119 115 93 101 117 126 110 95 87 73 50 49 50 35 32 20 18 16 27 28 40 50 106 110 89 
80 110 151 185 109 140 210 196 161 87 184 181 139 161 153 162 166 142 150 145 133 142 128 109 107 112 107 100 99 105 104 96 89 97 89 92 84 85 86 80 77 77 75 74 73 73 72 71 70 69 69 69 75 70 68 68 70 77 111 76 89 73 93 90 81 82 80 71 71 70 79 71 66 61 60 58 61 55 51 83 87 69 60 60 51 56 63 65 66 70 70 88 103 113 104 107 115 119 126 144 233 231 161 176 168 139 119 188 193 172 166 121 174 174 171 131 143 140 101 115 158 154 143 140 96 77 101 112 83 114 99 88 83 71 80 82 69 54 69 92 102 86 76 90 120 131 104 100 93 120 112 91 73 72 59 68 37 34 47 30 20 18 16 29 39 61 102 97 72 64 
171 81 89 99 172 182 207 183 134 173 184 170 138 162 154 153 159 142 146 138 132 114 118 108 97 98 101 96 95 101 89 89 86 89 85 86 82 80 81 78 81 76 78 77 73 74 75 77 77 74 80 72 79 70 69 76 94 112 105 96 85 79 78 82 76 73 73 70 63 61 62 59 59 56 60 56 52 52 56 80 71 65 61 60 50 57 61 61 70 73 80 93 107 94 101 112 118 156 154 223 227 210 153 141 144 136 138 118 169 183 155 161 176 160 174 174 142 163 157 107 92 107 136 137 121 114 115 119 99 97 107 80 82 80 69 79 67 68 68 77 80 83 80 83 89 109 98 99 100 131 118 78 70 74 59 45 66 35 32 26 19 16 21 29 50 94 74 58 56 36 
140 197 139 215 245 240 218 192 198 169 149 161 159 154 145 140 145 128 125 131 131 129 122 115 99 95 95 92 93 89 86 86 84 83 83 81 79 78 76 75 74 75 74 73 73 82 76 86 108 95 84 91 78 75 82 116 109 103 100 88 80 76 68 70 67 66 62 61 60 60 57 55 53 51 50 54 53 63 74 69 57 55 55 53 50 49 59 73 69 71 97 85 88 90 98 119 139 172 251 234 223 211 209 193 157 154 108 106 172 178 173 95 176 173 161 172 168 161 157 140 130 115 92 109 128 122 110 101 107 64 81 81 81 55 63 73 59 64 78 79 99 89 88 99 93 107 110 109 124 132 77 61 83 82 59 52 36 29 29 23 18 14 21 71 76 63 64 36 60 40 
157 177 240 233 234 224 215 210 193 183 170 159 150 149 141 126 128 136 126 120 116 118 115 104 104 93 90 88 89 88 88 84 84 82 81 80 79 78 77 76 75 74 73 74 74 80 74 78 87 94 89 107 86 101 128 114 97 90 90 80 75 68 68 65 61 59 58 59 60 55 55 53 63 56 52 62 63 58 54 50 47 46 50 47 47 60 74 73 76 81 78 80 90 97 111 120 222 244 224 166 225 223 207 177 165 168 100 164 131 179 124 93 182 173 173 135 155 158 135 140 154 129 127 90 133 111 109 107 74 76 81 57 76 52 61 63 52 74 86 96 99 105 108 125 114 121 127 119 91 89 90 71 65 86 83 57 39 40 24 20 16 13 21 44 60 48 43 26 19 18 
196 184 179 196 208 172 207 205 193 177 160 137 131 140 135 119 139 120 110 111 112 112 102 103 95 89 89 87 88 89 85 83 82 89 78 79 78 78 79 81 77 76 75 77 79 80 74 78 85 98 105 154 125 125 105 97 99 89 75 76 71 67 65 63 62 64 59 58 56 56 56 57 60 52 49 47 49 50 49 47 50 47 48 46 67 58 54 59 80 90 87 110 98 99 115 139 178 215 215 145 165 211 202 163 148 118 151 92 87 129 154 79 169 156 162 159 146 149 141 130 127 127 115 85 121 113 110 99 86 57 50 46 48 50 51 54 74 83 128 138 139 109 112 120 90 81 118 99 106 108 78 93 69 60 67 60 52 27 20 18 14 16 14 57 50 52 56 17 34 58 
110 88 188 223 178 203 141 197 181 170 162 149 123 109 120 131 134 126 116 104 107 107 95 102 98 88 88 86 86 84 83 82 84 110 85 78 78 77 79 82 77 87 104 80 84 85 79 79 82 109 95 106 109 119 122 88 80 82 80 69 66 66 65 64 63 61 60 58 60 60 56 56 57 55 52 53 53 49 51 51 53 51 46 46 47 47 50 57 68 103 110 120 108 119 121 220 242 175 139 125 206 163 187 181 180 160 160 140 142 88 74 76 117 144 102 170 156 139 138 119 103 124 119 103 79 103 99 71 49 42 46 85 74 58 74 69 70 78 86 118 150 148 123 76 74 66 103 111 94 77 78 94 79 46 62 65 39 22 20 14 14 21 43 49 42 70 46 14 43 48 
58 140 213 144 92 167 173 191 170 160 154 130 125 114 98 121 127 122 116 104 95 94 94 89 86 91 89 91 84 85 85 88 85 90 79 79 80 81 79 79 79 84 118 90 109 112 84 99 81 82 87 93 103 103 107 90 78 74 71 69 68 68 68 69 66 64 64 61 61 61 60 60 58 57 57 58 54 51 50 56 59 97 68 50 46 45 50 62 72 100 117 136 131 140 141 218 224 221 207 113 149 113 137 184 191 169 163 159 118 149 114 79 62 95 131 123 133 116 117 107 98 110 99 104 77 100 100 74 44 72 71 76 109 70 76 130 78 77 100 125 104 105 85 71 58 70 76 111 110 78 58 87 60 55 35 39 29 18 17 13 10 11 20 41 42 66 27 19 40 65 
49 67 71 100 197 190 175 176 170 149 149 132 119 105 102 94 103 114 115 107 98 91 89 88 119 99 98 88 85 86 85 87 95 91 80 83 80 85 84 87 93 89 95 113 106 118 103 98 113 100 107 96 95 90 84 84 80 89 73 70 71 70 72 71 70 69 67 64 63 65 65 66 73 60 57 57 57 54 55 76 75 56 66 92 70 51 45 56 72 79 115 108 180 185 219 224 201 186 145 149 98 102 94 100 160 180 161 156 152 155 154 142 139 89 57 117 106 98 102 101 84 89 96 98 84 93 86 69 41 68 83 102 85 66 80 116 76 65 71 76 85 80 67 61 53 57 59 76 80 68 78 82 68 39 62 34 31 21 16 10 9 13 15 21 44 43 17 29 69 41 
64 61 113 147 193 184 160 162 144 134 133 121 108 111 108 98 91 90 104 101 96 90 89 92 100 100 106 99 90 94 99 93 90 86 87 83 83 87 122 142 140 112 98 121 109 96 110 87 85 99 97 92 90 82 78 80 89 80 76 75 79 80 72 76 75 72 69 66 66 70 69 76 97 77 63 71 80 58 51 72 66 49 48 50 53 53 44 53 74 99 103 115 125 178 223 194 181 129 127 190 146 97 74 133 170 136 136 150 143 109 135 89 127 116 110 48 92 99 109 110 110 104 80 94 89 77 92 64 39 58 87 79 85 59 60 69 68 60 60 65 62 60 57 60 59 45 49 57 59 68 85 73 69 70 71 35 19 17 16 8 12 18 14 23 57 32 11 16 38 29 
85 95 111 90 152 174 158 154 146 133 123 111 112 108 100 99 90 93 90 96 91 88 84 93 100 114 110 100 100 95 99 92 85 84 86 87 83 89 108 142 136 129 108 114 115 98 84 105 104 90 89 89 88 80 90 88 87 79 78 79 83 78 74 81 80 82 79 75 78 88 75 90 96 80 72 79 74 70 58 53 61 48 55 50 48 48 45 55 78 107 131 129 199 211 204 176 180 128 105 174 194 154 75 120 170 147 140 117 130 82 121 73 111 68 103 105 49 102 100 101 102 90 82 82 87 74 92 73 63 35 56 50 80 66 82 53 56 59 60 53 53 48 46 46 50 50 42 63 73 64 70 90 93 101 52 28 23 22 14 7 12 18 39 27 37 26 10 28 31 24 
80 114 150 164 155 169 150 130 137 129 121 117 116 104 98 90 79 87 89 80 82 78 89 91 89 122 122 107 98 96 99 90 89 94 89 87 83 86 89 95 123 116 110 106 99 98 87 88 98 90 88 91 90 88 88 89 88 92 100 86 88 83 80 82 92 93 102 112 94 81 90 97 114 109 91 74 68 60 58 54 52 49 48 50 49 44 49 81 90 102 131 142 168 201 191 144 179 179 94 183 168 163 102 85 147 143 126 89 99 61 64 52 38 40 65 98 36 101 95 94 89 94 87 87 81 82 64 70 71 34 44 51 49 49 46 45 56 49 51 58 60 58 43 39 50 57 47 70 59 58 81 69 85 92 59 39 36 16 11 10 12 10 19 24 31 26 8 20 23 19 
88 114 190 139 177 162 145 119 126 124 118 110 100 99 94 91 85 83 78 91 69 73 96 94 101 100 117 108 107 94 89 90 119 131 119 104 87 102 111 95 107 111 105 99 96 90 87 89 94 91 91 94 93 99 112 117 125 124 110 105 114 104 135 107 90 116 127 101 113 106 127 122 113 116 118 74 67 59 57 57 53 48 57 50 46 44 53 93 89 98 131 198 204 194 185 189 153 146 79 120 127 151 136 67 140 100 130 105 53 53 37 32 28 26 29 31 81 100 90 91 73 90 91 58 82 81 59 42 40 40 35 67 41 51 48 53 49 43 51 61 101 51 50 39 71 49 48 40 45 63 73 103 101 114 82 43 47 32 29 21 4 6 13 18 23 24 19 13 11 14 
90 117 194 170 150 152 142 125 110 120 116 92 100 93 85 87 75 87 77 66 78 74 79 80 89 109 115 104 110 99 99 98 117 140 125 112 93 90 93 98 99 103 103 101 93 90 89 91 100 94 94 99 125 186 217 238 219 201 151 154 141 140 106 108 108 127 131 127 113 111 129 126 124 116 122 94 79 64 59 73 59 48 49 47 54 44 63 79 79 121 192 200 184 178 170 174 144 95 76 87 141 91 64 44 118 109 92 89 83 35 28 28 35 71 25 64 80 95 94 88 92 92 78 69 63 81 71 71 45 34 33 59 38 41 41 41 39 40 48 71 96 58 46 36 44 38 47 69 53 59 100 116 89 59 48 32 28 27 27 21 5 4 7 11 16 15 14 7 11 11 
99 110 193 166 150 146 139 132 111 111 108 109 98 92 83 81 80 78 78 70 96 90 92 89 82 90 97 88 100 100 104 129 140 130 117 102 99 94 94 101 100 101 98 93 91 93 101 94 97 98 99 112 171 208 199 209 194 207 237 196 192 140 116 124 146 134 150 147 127 164 183 139 128 119 114 120 119 75 70 84 61 49 48 55 50 44 53 64 93 99 119 157 173 162 143 160 137 129 110 128 111 46 34 35 100 99 52 90 50 27 26 86 69 45 25 23 89 73 65 84 72 78 77 77 69 42 41 45 39 33 33 53 38 36 35 42 36 38 47 57 59 55 43 59 50 31 39 38 44 59 75 102 57 40 49 32 34 29 21 20 19 4 3 8 11 12 11 8 1 10 
104 199 193 167 147 135 125 125 112 112 118 110 100 90 89 87 90 75 72 68 61 72 82 71 92 99 90 76 99 95 112 119 138 129 120 103 107 96 100 98 105 104 101 97 96 95 97 99 100 106 109 172 201 201 185 225 179 179 212 220 205 146 175 214 222 214 171 200 197 189 192 189 159 133 118 108 116 155 122 129 95 76 75 78 42 62 65 77 87 113 170 185 176 134 134 134 124 120 124 50 94 33 35 31 34 39 54 50 28 27 102 88 54 31 24 23 72 61 55 55 74 71 70 71 72 73 69 60 46 30 40 42 37 32 31 32 35 43 43 32 30 60 40 35 32 29 35 47 56 48 51 54 52 29 35 38 39 24 17 16 12 10 5 3 5 11 7 4 1 4 
113 183 179 155 140 131 119 112 111 120 118 110 103 101 90 80 81 79 90 68 63 59 59 60 61 68 70 72 72 77 93 101 131 120 109 113 104 106 94 138 142 109 106 110 100 99 107 114 118 131 171 199 189 224 170 180 188 157 194 212 192 205 222 199 189 194 234 228 207 174 174 161 166 175 158 117 111 125 137 106 99 128 69 60 42 56 53 74 101 99 171 172 158 174 135 129 105 110 105 99 38 30 75 66 37 28 30 28 30 78 85 78 48 27 23 23 60 54 43 45 50 51 47 49 54 61 62 57 52 29 35 31 48 40 31 39 38 37 30 19 21 22 28 28 30 31 41 50 54 36 30 50 40 36 20 22 37 18 17 15 14 11 1 1 2 4 3 3 1 1 
117 179 169 160 141 120 119 116 118 124 120 110 109 98 97 88 88 83 79 85 70 59 57 60 60 65 67 67 78 79 81 121 121 106 110 106 100 99 99 100 107 123 111 110 107 129 176 178 180 196 185 176 181 186 180 150 200 174 190 208 181 199 206 213 171 168 180 222 177 176 183 152 132 150 139 152 110 117 151 154 108 160 90 67 48 55 81 95 131 161 160 180 153 145 131 103 102 95 66 70 70 30 104 96 94 74 59 87 83 75 73 68 50 30 24 26 55 52 49 41 42 40 40 41 42 47 60 54 39 28 33 43 51 49 35 32 33 36 37 20 17 18 21 39 38 34 32 35 30 30 28 33 32 33 23 20 20 19 15 13 11 12 9 1 2 3 4 3 3 2 
128 180 173 153 135 130 120 118 120 119 121 120 117 109 104 98 87 77 90 76 66 57 55 58 58 64 68 119 84 121 88 90 90 94 98 102 106 109 105 106 106 112 117 116 114 127 176 190 225 220 200 183 174 164 193 161 182 162 152 185 193 161 180 205 164 187 184 203 188 196 199 158 162 137 136 136 134 115 136 182 169 150 78 74 45 49 73 128 151 171 150 141 142 110 105 101 93 93 89 76 75 42 30 91 91 80 76 102 80 69 61 52 47 31 21 25 31 30 31 31 35 32 31 32 31 34 38 44 45 27 30 33 42 43 40 32 27 32 33 15 34 38 43 41 35 28 16 15 11 19 27 27 27 24 23 22 11 13 13 12 10 9 5 1 1 2 2 2 4 2 
127 181 161 156 141 130 128 120 119 120 122 117 120 104 100 93 93 86 72 70 61 54 55 58 64 69 74 104 119 118 99 93 90 100 102 108 119 115 115 117 133 173 154 132 151 177 203 198 179 234 202 206 202 156 148 143 137 172 153 199 163 159 171 169 154 152 186 194 169 166 185 176 173 163 131 118 127 115 146 150 166 156 110 135 41 54 72 113 162 151 128 120 120 110 100 96 95 84 62 61 75 57 32 66 80 112 81 91 68 54 50 43 43 37 22 23 25 26 26 27 29 27 30 26 28 27 29 32 36 28 27 29 36 37 35 32 29 32 28 15 23 27 29 30 26 23 7 5 5 18 25 21 20 21 17 8 1 0 1 1 0 0 1 1 0 1 1 2 2 0 
134 183 168 159 148 131 119 120 121 124 115 110 110 115 113 98 90 83 92 58 57 57 57 68 119 141 131 126 122 120 123 106 99 99 108 128 202 202 155 187 182 180 178 168 168 214 260 195 187 165 200 198 201 216 200 190 141 127 165 200 170 178 200 149 162 184 154 182 160 150 182 184 189 156 171 161 122 102 154 179 158 149 137 89 103 40 45 142 151 131 121 111 119 99 100 87 80 75 67 87 78 64 36 34 71 93 71 64 54 48 36 36 30 41 24 21 22 23 22 23 24 21 23 25 24 27 26 27 30 27 25 28 32 32 32 29 31 32 31 22 15 22 21 21 19 9 4 4 4 8 13 14 10 9 6 0 2 2 2 1 1 1 2 0 2 0 0 0 0 1 
188 179 160 151 137 129 121 117 111 124 121 119 114 110 100 100 97 69 60 57 51 53 57 105 154 145 134 125 120 104 110 108 109 104 126 205 199 189 200 189 178 170 170 169 160 186 244 190 171 183 160 220 226 219 175 154 172 151 150 158 181 169 176 175 151 139 184 183 151 164 169 160 172 164 168 154 157 104 148 154 134 148 151 130 91 93 46 70 131 127 90 102 100 94 82 80 69 83 94 90 82 60 31 37 60 62 59 52 47 39 36 28 26 24 24 22 20 21 20 20 20 18 18 18 20 21 23 24 25 25 24 29 29 28 27 23 33 29 26 23 20 16 16 10 11 5 3 1 3 4 6 5 4 3 3 1 2 4 4 4 3 2 1 1 1 5 8 18 24 18 
195 173 164 162 149 138 133 112 101 118 125 130 117 111 100 94 80 89 64 59 49 52 57 74 99 102 130 114 98 100 105 115 112 122 186 202 188 180 190 180 178 173 162 160 160 179 262 247 180 150 149 161 185 206 207 164 199 192 148 127 149 136 178 144 120 172 171 173 140 144 162 151 152 164 148 135 111 99 114 150 143 123 146 129 115 109 70 41 62 44 38 47 91 85 92 65 67 93 84 85 63 33 32 37 49 49 47 47 41 38 38 27 27 28 26 26 23 20 20 20 19 19 19 18 19 19 35 20 22 23 24 27 27 27 24 23 29 30 27 23 23 18 7 1 0 1 1 2 1 3 4 2 0 2 1 2 4 6 6 5 5 5 1 9 42 32 50 51 49 72 
192 178 156 144 130 140 127 131 116 132 128 122 121 111 108 95 88 82 60 54 48 52 56 60 65 83 95 86 99 97 111 134 207 203 186 190 179 179 187 218 235 205 168 157 153 236 259 201 179 173 157 153 177 178 214 214 200 204 190 192 136 117 167 140 147 160 164 159 153 133 150 128 150 149 145 149 141 112 118 134 131 120 104 139 135 112 95 76 40 39 48 37 39 90 82 75 84 81 71 39 32 33 34 36 47 38 35 37 38 42 45 40 39 30 30 32 29 27 25 26 24 23 25 17 17 35 19 19 20 21 24 26 26 26 23 22 25 27 24 20 17 6 1 3 3 1 0 1 0 2 3 0 3 5 7 6 6 7 9 8 9 24 5 43 40 35 51 58 118 69 
173 184 145 173 158 141 142 130 78 112 118 124 118 110 100 101 96 79 60 48 50 51 58 112 122 78 86 90 88 98 149 190 195 191 178 171 178 190 270 204 221 208 193 163 149 228 253 219 226 188 165 128 200 153 196 209 195 193 195 180 170 147 123 115 158 154 155 130 142 129 129 133 136 135 138 125 112 120 81 112 125 119 119 84 100 97 109 88 47 53 84 71 36 37 71 70 64 54 38 33 43 51 43 34 52 35 37 40 37 38 39 42 50 37 39 43 55 38 70 39 30 27 20 16 17 16 17 31 19 20 22 24 24 25 23 18 23 23 21 16 9 1 4 6 8 7 2 8 10 0 0 4 10 14 19 17 13 29 20 18 41 25 31 9 26 24 29 43 58 72 
193 165 183 174 158 150 142 75 84 92 117 129 114 101 85 70 80 80 58 46 50 56 89 106 67 84 90 95 92 109 179 188 189 180 169 172 185 220 247 188 182 249 180 235 147 158 241 230 218 180 160 178 126 188 200 194 192 175 185 189 166 173 134 129 109 148 145 140 120 135 135 111 125 125 124 121 116 119 80 100 110 118 107 94 89 91 84 84 45 61 89 85 58 39 36 35 34 34 33 34 60 51 44 35 34 39 43 42 42 43 40 44 53 47 50 53 68 59 81 39 37 30 27 18 16 16 15 31 18 19 21 21 22 22 22 22 21 22 18 14 9 3 1 31 25 15 19 33 29 25 4 25 16 29 24 29 18 27 29 32 46 30 13 24 15 20 23 52 71 56 
196 195 175 174 164 116 150 155 90 105 129 116 111 95 78 65 58 52 46 53 52 68 125 82 88 80 87 105 106 175 170 175 181 170 167 171 180 263 220 179 169 205 158 190 148 169 227 183 213 215 188 205 158 141 168 183 169 174 182 179 176 170 153 148 131 99 133 132 108 123 109 104 119 113 111 141 120 113 78 111 98 88 110 104 89 71 57 46 45 45 104 92 89 57 44 40 41 32 42 49 58 49 43 35 36 37 40 45 50 48 42 52 71 69 57 68 69 71 72 59 46 35 30 33 17 16 16 25 16 29 24 18 17 18 19 21 19 18 19 13 8 5 1 33 40 19 5 40 52 27 6 19 27 24 28 49 44 28 36 54 61 45 16 20 26 49 29 45 46 38 
185 181 179 168 159 161 147 153 139 123 132 116 104 80 75 57 58 61 61 70 57 62 89 62 76 84 97 90 97 145 169 164 168 167 161 181 191 254 250 175 160 155 188 139 144 216 178 199 181 205 191 141 149 158 159 150 171 162 141 151 149 160 155 139 139 131 95 107 111 120 107 127 110 112 107 114 131 98 73 104 121 86 73 81 59 69 61 58 46 46 101 90 76 62 57 50 40 52 52 61 55 50 37 36 38 39 42 46 60 55 43 49 67 65 61 63 66 69 78 82 60 68 58 76 55 15 15 16 14 23 23 15 15 16 16 18 21 17 14 12 11 2 5 8 26 26 9 26 50 20 10 13 32 25 37 59 48 40 49 83 46 31 21 38 42 48 36 51 60 48 
175 135 110 174 177 176 164 137 94 95 83 100 107 90 71 60 43 50 56 57 58 101 66 79 81 77 92 99 148 173 173 167 160 170 158 165 173 235 239 221 190 151 187 140 197 173 178 170 167 129 163 123 112 108 123 141 152 139 154 127 118 136 140 139 161 141 122 94 107 116 101 132 108 118 100 138 110 93 81 74 81 68 58 58 81 91 91 48 46 46 50 44 46 41 38 36 40 58 70 63 52 39 38 39 37 48 60 50 59 63 52 61 56 61 60 60 65 69 80 81 59 61 66 70 71 21 15 14 14 14 15 14 15 14 15 15 16 17 17 15 10 1 3 6 38 48 9 49 53 46 19 10 18 33 37 47 73 60 65 84 48 29 38 26 42 61 66 72 82 66 
202 198 89 107 178 132 108 73 72 144 120 106 89 80 71 61 48 43 47 69 104 113 92 70 82 82 91 93 142 150 174 168 162 160 155 157 174 217 204 189 189 163 164 160 162 152 163 175 166 139 114 178 176 153 149 104 101 122 137 143 140 113 128 130 129 129 138 109 106 112 101 131 120 105 94 119 131 96 87 79 72 71 80 100 94 80 57 50 46 45 46 46 42 38 38 36 46 53 81 63 49 37 47 50 41 48 56 55 66 80 52 50 70 67 73 78 67 67 65 57 53 49 55 61 60 18 16 15 14 13 13 14 14 14 14 15 14 15 15 14 9 8 2 5 29 52 19 29 52 25 16 12 17 20 30 44 70 83 112 63 39 24 39 42 60 58 46 64 79 89 
201 209 192 85 186 132 76 74 102 144 107 86 88 73 71 62 50 38 123 133 155 108 76 99 108 78 84 89 142 170 207 197 180 158 160 171 161 200 187 184 146 170 168 167 126 138 124 121 126 169 178 161 166 162 161 158 152 144 97 120 132 131 116 122 127 107 125 130 109 96 102 112 107 88 109 109 120 143 121 105 115 123 106 88 96 74 52 49 47 52 61 50 45 39 38 38 40 48 62 47 40 43 57 62 50 53 57 69 75 80 59 60 79 76 87 89 80 72 60 49 52 43 62 50 47 16 16 15 14 13 13 22 22 14 14 13 13 14 11 12 9 6 4 5 18 18 16 15 17 15 14 14 17 23 29 37 41 59 84 51 37 27 39 54 36 65 70 89 91 100 
59 105 97 65 143 40 51 48 124 117 109 108 110 85 78 57 41 43 115 175 161 161 102 100 92 86 88 107 110 166 225 192 162 158 156 160 169 161 143 160 140 149 130 129 139 194 182 181 164 169 152 150 140 135 148 147 129 98 104 95 98 110 104 101 98 96 101 127 131 112 92 77 79 100 130 89 96 98 131 131 132 119 110 100 73 53 50 48 78 80 69 58 47 40 40 40 42 47 56 40 44 42 55 82 55 53 70 60 71 70 69 81 80 70 76 79 83 74 51 63 47 51 49 37 48 17 15 13 13 14 13 13 13 13 13 10 10 11 10 9 5 4 4 10 14 16 16 14 20 17 15 16 20 25 29 39 42 55 62 50 35 33 46 58 58 49 55 67 79 68 
97 107 81 63 53 52 161 128 83 131 112 110 106 95 70 47 40 42 83 134 145 142 112 87 89 99 165 149 229 180 169 166 188 182 172 167 164 172 165 163 167 148 200 171 186 175 154 160 149 139 136 144 141 134 140 112 124 126 128 120 121 102 91 89 87 86 84 86 87 84 79 79 73 71 74 76 76 79 85 87 89 89 98 88 56 53 53 72 92 92 82 79 48 44 40 41 50 49 44 42 49 49 58 67 61 56 51 58 64 70 73 80 81 77 93 85 72 66 78 70 43 70 56 28 29 24 23 49 13 12 13 13 13 11 9 10 11 18 10 6 6 5 9 31 26 16 21 16 17 31 30 29 20 26 32 37 43 47 49 49 39 45 52 51 75 48 59 60 72 78 
89 27 29 22 133 170 154 128 100 105 93 71 63 59 48 40 38 40 47 66 97 112 101 90 105 116 162 190 231 177 194 178 189 211 188 191 201 205 171 214 191 172 188 189 181 158 167 170 148 148 158 151 155 152 110 133 139 111 123 113 99 109 102 107 103 95 123 109 84 83 82 81 79 76 73 68 68 66 65 65 64 58 57 58 55 54 69 70 94 98 90 72 59 50 49 46 62 47 41 47 60 60 51 50 54 59 56 61 63 71 82 88 100 90 98 108 82 74 63 57 63 50 42 46 45 30 28 19 17 11 11 10 12 10 9 14 20 12 8 11 10 10 22 28 21 18 20 19 29 34 29 49 33 24 31 40 41 53 55 55 53 61 62 64 74 61 65 67 81 82 
22 95 160 28 183 168 117 100 89 78 79 60 57 52 39 38 40 44 54 90 107 97 93 81 172 194 189 186 181 169 195 203 204 238 200 230 199 219 215 214 213 191 201 192 183 174 178 167 172 149 163 155 146 129 134 128 150 118 124 113 109 125 130 143 115 110 101 105 112 92 105 112 121 120 97 108 70 73 67 65 65 59 59 57 57 72 91 89 94 92 87 80 60 53 48 51 59 43 45 64 64 59 58 61 60 64 62 69 70 79 100 123 118 112 85 83 78 70 66 66 70 57 50 48 40 39 38 38 20 15 26 11 11 16 23 18 16 11 13 16 14 18 30 30 26 29 41 29 35 26 41 49 31 27 32 36 45 52 74 79 81 80 77 89 65 88 83 89 93 102 
21 134 182 73 80 135 105 86 71 65 58 53 49 39 37 33 42 44 82 76 58 99 82 72 90 201 214 208 148 131 165 165 218 251 234 288 254 211 242 228 241 229 227 218 200 185 187 178 165 165 150 159 129 138 137 139 139 129 151 144 130 136 155 146 130 119 114 101 95 100 122 114 111 109 117 116 116 115 110 101 92 61 78 70 80 94 98 99 90 93 93 71 52 69 60 57 49 48 46 59 79 61 57 64 70 77 69 67 83 93 115 120 127 100 80 73 75 59 67 68 54 67 46 48 38 61 38 30 37 18 12 12 19 34 32 19 15 11 30 22 26 50 38 48 35 23 41 46 41 39 38 49 39 39 46 46 50 48 70 95 131 132 106 84 79 80 117 116 118 100 
48 127 174 68 84 120 93 77 67 60 51 48 43 40 32 34 37 41 43 60 56 82 73 67 74 100 148 143 136 125 139 138 151 215 159 195 212 176 175 152 172 165 255 157 149 151 146 140 159 191 163 149 118 146 138 148 123 128 146 163 135 170 171 157 141 129 119 109 107 99 101 89 97 86 78 80 72 68 67 80 66 95 100 95 105 100 99 92 78 68 69 54 64 59 48 46 71 54 47 48 50 52 58 69 75 79 87 80 84 93 89 124 121 109 91 63 58 48 53 54 45 54 38 31 35 50 39 35 35 19 12 14 37 49 35 18 14 16 39 21 33 48 40 51 31 30 30 39 46 60 66 72 64 58 69 66 69 56 107 98 126 95 108 109 117 120 129 138 100 86 
164 156 113 25 139 124 121 103 89 78 62 48 48 32 32 37 45 42 44 47 61 56 71 70 74 133 135 128 127 122 123 133 129 137 139 140 160 141 137 142 150 150 150 140 128 162 172 158 159 140 164 128 160 159 151 153 141 141 150 168 174 200 191 169 153 145 132 115 114 107 100 108 124 101 109 82 111 89 98 80 68 89 106 106 105 102 101 100 95 90 57 70 59 53 51 47 73 61 51 49 48 48 48 53 51 53 57 66 87 74 78 110 89 111 123 89 70 57 42 43 37 35 30 30 28 29 30 30 25 17 14 14 36 69 47 13 12 29 40 30 27 36 55 41 43 37 37 46 58 69 87 103 80 91 94 93 100 64 118 129 126 104 127 136 145 97 119 119 126 130 
134 41 74 41 136 121 108 90 72 52 47 37 30 31 33 40 51 40 49 67 58 60 70 99 120 130 131 148 132 124 117 118 124 121 129 128 163 173 129 129 133 131 119 132 131 143 149 165 166 162 153 142 163 161 155 143 151 219 236 263 272 203 284 262 159 151 148 126 113 129 123 135 130 98 87 99 88 85 89 80 81 70 92 96 89 81 75 91 78 67 62 70 60 58 50 50 76 80 60 61 60 60 57 55 56 55 54 52 61 59 68 84 82 122 109 103 94 61 57 50 38 30 27 24 23 22 25 24 33 21 16 15 25 50 32 19 36 51 50 40 37 59 49 50 58 42 49 58 72 89 99 115 99 100 110 111 78 103 141 154 121 146 148 157 164 107 161 151 156 139 
59 63 145 68 35 86 38 30 28 41 37 37 40 44 44 35 40 43 60 51 52 72 66 67 85 127 122 139 143 124 113 111 115 112 117 120 120 127 124 121 120 119 123 128 131 137 139 149 153 156 156 150 140 145 187 219 199 198 213 250 234 252 190 279 253 188 149 140 132 130 130 133 109 101 95 100 101 90 95 100 89 81 82 93 87 78 72 75 70 63 70 63 61 57 55 64 65 72 70 49 78 81 76 81 70 76 69 62 61 59 59 75 79 112 90 120 88 60 42 38 32 37 26 25 25 30 32 25 31 22 16 16 17 30 32 23 33 52 45 56 48 70 60 60 69 61 56 80 99 121 120 140 133 123 124 78 129 137 147 149 157 163 160 153 175 118 176 171 175 172 
90 57 123 44 104 93 76 51 38 36 34 39 51 56 47 46 59 42 46 45 48 58 61 72 69 114 121 110 131 114 110 109 120 106 112 115 119 122 121 111 118 110 117 124 141 179 183 160 157 151 155 153 155 149 214 192 175 179 204 231 180 221 162 243 183 222 171 145 134 133 139 147 113 116 112 102 104 96 122 106 90 87 76 97 102 87 79 71 72 67 59 60 60 50 63 71 60 56 59 60 57 91 92 94 91 94 91 85 80 72 60 61 74 78 110 112 89 52 46 40 42 36 26 24 28 33 29 29 37 21 17 17 29 37 17 19 22 31 35 43 55 57 61 53 67 64 82 102 116 152 161 148 141 113 88 99 111 126 106 167 172 173 179 176 190 128 134 180 179 145 
36 75 130 113 88 52 61 47 52 44 44 51 48 43 51 80 64 53 43 46 50 54 57 61 79 120 83 80 100 112 110 107 110 112 111 115 104 102 100 103 109 118 131 171 232 181 189 154 150 145 152 210 187 164 177 180 162 177 194 196 204 156 154 188 195 175 246 188 160 151 140 128 135 120 154 129 126 102 121 132 104 93 82 99 87 90 74 72 70 62 60 60 58 53 61 84 58 59 56 70 64 52 70 93 96 93 96 102 92 98 90 60 66 78 85 110 95 70 60 48 51 52 53 28 29 37 39 38 27 26 18 19 28 38 26 27 29 23 42 33 38 43 47 60 78 74 121 149 151 164 149 130 111 146 90 129 140 161 141 127 183 177 192 189 149 187 146 204 205 163 
74 106 135 119 85 36 49 56 55 41 39 40 42 49 85 75 65 50 48 47 48 49 55 60 64 69 72 114 112 114 118 111 111 107 102 101 105 111 99 109 136 163 196 221 209 182 167 202 141 145 160 217 253 250 220 197 193 150 170 173 160 180 167 210 217 176 233 232 221 261 198 144 127 125 130 129 113 113 134 166 135 107 101 99 95 82 86 77 67 62 59 60 71 60 56 85 70 59 64 62 70 83 58 68 80 68 82 73 67 68 66 66 61 71 83 108 111 69 54 49 47 37 39 50 50 24 21 21 21 19 20 29 42 42 48 38 29 51 41 28 40 38 58 73 103 95 127 139 172 166 160 166 115 140 128 131 163 156 167 114 180 140 179 238 206 204 185 187 224 198 
74 63 123 104 67 40 53 49 40 54 46 40 42 59 59 71 67 53 50 49 51 54 56 68 69 66 83 129 128 129 126 118 118 110 109 102 100 98 95 124 130 155 163 190 196 197 189 192 179 148 210 186 211 239 252 228 244 200 135 131 149 171 177 157 198 190 187 203 188 231 167 146 177 204 230 204 157 224 177 155 165 126 106 111 101 100 79 70 69 73 68 69 69 72 57 70 75 67 59 71 64 70 62 60 58 60 60 63 65 68 64 66 70 63 85 88 69 61 49 51 48 51 34 40 29 25 22 21 25 26 28 38 35 50 51 39 35 41 54 40 32 41 70 100 122 132 127 145 168 161 162 156 159 148 159 162 161 171 183 127 164 167 168 240 239 239 223 224 242 216 
115 107 112 102 82 39 56 56 50 47 49 42 59 90 83 73 62 58 55 56 58 62 80 70 68 81 119 113 160 211 207 166 179 127 170 171 137 102 93 162 170 169 193 185 173 178 170 170 172 162 180 200 194 234 242 201 209 195 210 163 144 143 160 143 169 158 139 185 190 172 159 131 173 171 193 159 164 186 195 191 176 167 126 165 135 105 87 77 81 77 71 66 68 79 58 79 79 70 67 65 76 80 60 70 71 66 70 69 68 70 65 68 80 65 76 104 105 62 50 42 41 45 42 28 27 27 23 29 28 34 41 36 48 47 56 50 41 46 51 59 71 31 91 121 137 141 127 180 180 171 163 128 164 153 160 160 178 169 190 175 202 153 194 238 261 218 157 161 149 131 
131 122 108 79 59 49 55 55 48 50 46 45 49 96 77 72 74 60 61 67 66 71 71 70 92 96 93 101 201 162 200 181 166 181 179 186 141 159 91 107 172 159 177 171 166 173 154 144 148 145 152 174 206 214 182 218 201 201 162 201 142 144 128 147 148 143 157 148 171 151 176 134 161 141 162 172 137 163 179 168 148 171 166 150 139 130 112 110 91 80 88 81 64 60 60 84 81 79 65 80 91 72 65 61 68 81 72 70 79 69 67 68 78 70 79 89 113 77 45 37 40 32 34 33 29 29 24 43 40 39 37 48 44 55 74 59 57 57 65 88 77 34 97 128 162 171 147 167 165 162 160 168 179 144 182 189 196 199 148 156 214 170 243 225 157 118 121 133 130 116 
89 102 74 76 49 60 70 65 57 63 50 49 63 58 66 72 70 70 86 109 114 91 116 89 97 82 109 191 166 161 178 176 159 140 144 152 169 119 90 126 130 149 142 169 165 156 148 136 151 137 152 176 180 185 179 172 163 189 200 209 207 174 133 110 141 121 144 149 149 156 125 155 151 143 157 165 142 132 160 159 141 138 131 134 123 131 119 108 100 102 78 70 82 75 65 89 96 82 70 68 70 78 79 71 69 78 78 78 77 69 68 79 78 66 76 99 112 60 46 44 37 49 44 37 43 40 39 27 38 47 51 62 59 67 80 92 78 82 89 113 127 37 88 111 128 186 173 179 177 178 181 190 121 117 98 111 143 171 212 228 177 225 138 111 110 103 159 134 117 116 
87 108 89 73 61 81 83 78 73 49 55 60 55 62 64 76 96 164 174 195 206 183 144 169 161 101 177 186 172 136 175 171 164 153 150 109 145 128 87 116 134 123 139 156 146 155 144 138 128 129 156 152 150 137 135 141 166 168 168 154 188 178 173 122 97 140 112 128 128 141 135 132 118 130 140 136 134 118 142 155 138 129 114 130 130 115 113 100 94 85 74 86 80 71 78 79 106 79 70 69 83 80 75 70 75 80 85 92 87 90 78 75 77 67 85 110 85 62 44 40 40 40 42 49 41 29 31 47 49 61 67 80 82 89 99 110 111 119 133 138 131 38 75 149 181 189 115 136 206 209 220 190 104 87 86 92 93 119 129 121 113 128 124 99 91 136 149 147 161 139 
94 110 92 70 71 82 94 74 57 56 60 59 60 92 108 195 196 144 197 169 186 210 188 124 106 130 152 173 162 152 152 169 182 150 146 137 129 132 120 94 124 121 142 139 134 170 143 133 129 145 137 130 121 122 118 146 142 148 129 133 133 140 161 172 137 98 121 116 120 119 136 112 114 123 121 130 122 131 108 133 130 105 115 121 124 104 100 100 102 90 89 101 88 90 97 99 104 77 80 83 79 100 89 71 73 84 99 112 102 99 90 98 102 67 79 110 63 50 44 65 59 47 60 54 32 28 48 59 63 82 86 98 114 131 138 158 139 138 134 124 151 53 50 190 208 123 79 75 80 98 121 133 94 83 78 89 101 116 107 105 101 110 130 98 87 102 132 162 196 209 
73 106 107 53 68 83 74 60 57 63 77 69 104 131 217 205 196 168 196 189 176 186 185 182 170 140 129 157 132 116 152 163 161 152 139 154 129 117 99 88 98 113 131 133 119 157 213 151 123 155 138 131 122 116 120 130 119 121 125 106 110 118 135 138 145 135 103 88 110 114 123 118 97 115 125 121 108 87 112 107 113 110 119 120 118 105 108 99 106 97 108 101 111 100 112 102 86 109 116 96 89 95 89 78 80 100 116 135 137 120 110 92 89 69 76 79 66 55 56 60 64 65 62 47 32 51 66 78 96 113 134 161 184 159 136 183 172 179 183 176 121 72 41 53 61 61 60 65 70 80 90 101 85 87 117 129 131 153 137 136 131 81 99 81 73 85 75 80 87 104 
82 84 71 96 89 78 70 66 67 90 112 88 121 162 182 208 182 157 185 187 176 151 170 164 159 153 120 145 134 133 141 148 132 128 122 140 122 130 124 83 99 128 128 122 126 149 148 159 120 159 125 122 113 121 110 103 110 110 105 105 100 101 107 110 122 127 123 77 100 90 111 99 82 118 103 78 92 119 93 114 118 119 128 130 123 122 122 111 116 111 102 103 118 110 116 109 99 111 111 107 116 113 98 88 90 97 159 181 172 148 93 81 80 71 78 89 91 75 69 78 86 82 77 56 31 70 104 131 143 165 184 181 195 184 184 206 200 155 79 71 60 54 80 57 42 43 51 50 89 110 107 123 119 92 79 78 90 88 100 114 116 82 74 71 65 75 73 69 75 75 
96 120 69 84 83 92 104 79 124 118 103 113 157 135 166 213 202 184 154 133 151 121 142 151 146 138 131 120 124 131 121 137 144 128 130 110 98 106 87 86 106 116 117 124 110 130 130 145 107 172 124 108 107 98 108 93 98 100 97 90 91 91 95 102 104 110 112 87 91 110 105 101 92 74 93 90 125 129 134 116 113 141 142 147 159 138 152 148 145 132 132 123 118 131 130 97 114 90 114 119 110 128 118 99 93 97 137 150 139 111 78 79 75 79 101 116 113 108 114 134 143 134 132 86 33 50 79 129 112 90 99 102 131 152 148 146 123 97 79 93 95 80 99 59 47 49 57 44 60 60 62 65 69 67 79 70 84 84 100 89 75 81 69 71 61 70 68 58 73 56 
95 119 110 72 68 76 95 111 109 122 120 122 126 186 168 204 212 191 160 172 170 164 141 116 142 142 139 122 99 113 135 114 107 123 123 109 110 107 111 105 103 93 101 122 98 105 151 125 108 169 160 110 101 101 95 92 79 89 85 82 82 81 74 88 80 109 88 108 68 112 86 71 77 104 112 116 115 128 123 117 118 130 159 147 150 164 198 196 174 178 156 181 128 140 116 109 110 105 121 124 115 130 119 114 111 107 113 119 112 90 70 81 80 90 104 95 89 117 91 100 80 63 60 51 33 38 44 42 52 68 89 88 88 86 87 103 117 137 103 103 86 77 65 57 69 60 52 52 46 50 53 55 65 70 66 60 63 69 69 79 70 72 69 71 70 53 73 59 59 50 
104 90 101 73 78 93 89 104 108 130 120 119 195 147 125 156 159 170 189 176 154 143 133 133 112 140 135 109 112 103 119 98 118 120 120 119 110 111 119 98 77 104 118 128 112 92 130 117 118 153 145 131 100 86 78 90 92 88 90 80 71 59 64 76 114 102 76 102 89 67 84 87 107 112 105 110 127 129 125 127 137 135 144 150 170 175 198 182 200 192 173 174 154 120 130 124 128 131 137 136 130 152 158 153 153 128 112 83 69 76 93 94 113 102 126 80 79 106 83 98 76 50 46 39 33 48 46 81 109 88 68 79 98 122 110 129 141 125 140 122 138 96 81 80 65 60 58 50 58 52 53 50 59 61 66 83 79 92 88 89 68 62 59 58 60 50 47 47 54 47 
120 107 71 90 77 89 138 138 139 140 128 116 114 137 119 150 121 122 142 177 158 161 150 131 123 129 132 130 130 106 101 111 113 104 120 114 124 135 138 101 78 91 99 107 89 103 144 113 105 164 124 100 95 82 80 91 81 80 80 80 81 59 95 95 106 99 87 88 88 59 76 98 107 112 111 120 109 119 134 143 165 131 129 154 173 190 184 162 184 188 166 176 172 132 146 142 128 146 148 173 183 161 138 124 105 115 92 68 88 104 74 63 84 122 85 70 49 93 63 85 97 95 47 38 36 42 78 106 102 76 95 97 111 120 131 151 159 175 163 175 171 126 101 77 68 69 60 60 57 52 60 51 58 62 59 72 90 113 115 91 59 50 48 47 49 61 46 51 41 41 
98 81 74 86 109 98 137 145 151 153 140 129 120 119 110 108 150 104 138 152 183 155 142 132 98 142 119 130 104 111 109 102 105 108 118 103 108 129 125 101 86 73 90 78 100 131 148 111 95 153 142 110 99 86 90 74 62 81 72 71 54 80 116 113 80 90 79 58 55 61 91 80 93 113 120 118 135 139 146 171 155 148 158 143 173 174 176 165 146 161 161 175 181 174 177 174 166 196 198 185 126 129 137 107 94 81 84 114 89 110 92 52 80 76 79 57 44 63 87 66 51 38 41 38 99 49 36 47 86 116 137 111 141 149 165 191 184 222 226 230 212 129 98 81 67 66 71 56 55 66 84 51 52 52 54 58 66 74 66 59 51 50 50 52 47 48 45 44 44 49 
89 79 82 86 102 110 136 191 215 172 170 157 108 129 107 100 137 141 137 175 143 141 118 112 129 153 137 119 126 106 105 91 91 108 89 114 100 103 100 119 70 73 94 107 117 135 118 99 103 128 120 107 98 91 83 89 86 74 69 98 65 64 87 93 92 80 60 51 77 77 70 91 93 90 115 129 133 149 138 157 151 147 171 149 145 126 119 141 164 166 170 163 179 181 196 180 179 223 196 167 118 108 90 92 77 112 101 107 92 101 76 79 51 50 49 51 51 45 42 45 80 47 84 100 101 75 83 46 70 86 133 172 178 208 218 229 133 198 277 279 161 119 95 91 91 84 65 67 75 80 61 55 52 54 55 56 58 59 58 55 59 56 62 69 51 50 55 57 62 67 
103 89 88 98 109 139 132 228 175 146 158 132 161 149 123 104 94 96 108 103 168 148 107 120 173 162 153 129 128 119 124 121 84 103 89 110 101 90 103 93 77 93 97 134 173 138 107 90 105 121 124 156 100 93 91 93 90 87 79 70 66 49 93 92 85 70 47 59 62 65 79 99 75 87 94 115 105 112 118 130 130 139 138 151 148 141 123 144 139 167 162 166 170 176 197 176 202 203 169 132 118 83 93 87 112 116 95 91 83 81 61 53 68 64 51 55 60 53 47 56 62 80 92 123 107 84 78 46 41 62 116 206 230 241 187 161 105 122 176 149 127 123 101 88 79 68 70 80 103 64 58 57 54 58 57 58 61 64 62 59 57 60 57 57 56 77 80 91 115 115 
97 109 101 107 121 209 143 168 189 150 165 140 136 126 112 106 98 100 88 135 107 114 87 151 158 129 138 163 152 123 115 94 83 83 103 101 105 89 107 79 70 100 96 121 120 100 104 87 101 105 113 116 99 99 96 99 92 84 92 78 59 45 94 92 77 46 46 79 55 61 60 62 75 93 80 100 92 96 96 113 114 110 111 132 129 99 110 127 129 141 160 159 142 159 152 148 191 126 116 102 97 120 133 145 88 103 97 90 76 56 72 62 60 68 61 58 58 61 78 59 62 70 94 115 80 95 70 56 40 55 81 101 128 122 108 111 90 90 108 89 89 85 84 84 77 66 76 90 93 65 60 61 56 57 58 59 61 67 71 69 64 61 70 80 72 123 124 118 153 125 
101 109 133 162 153 212 168 185 171 153 134 123 120 199 193 164 110 102 98 88 88 105 110 175 129 137 126 120 159 142 134 113 70 108 115 97 88 80 92 86 89 110 125 118 114 106 95 103 103 109 132 120 102 95 93 100 89 81 76 82 82 60 42 54 42 52 59 76 59 84 90 58 67 70 82 91 79 100 95 100 106 97 109 117 98 108 117 149 157 166 150 168 167 164 125 152 155 109 94 100 110 107 121 125 80 79 97 83 56 63 75 61 67 64 87 73 69 70 71 64 61 78 107 119 142 117 89 69 47 50 76 91 86 93 90 94 86 73 85 74 70 92 88 81 72 78 87 97 79 61 59 58 59 61 66 62 67 69 79 78 73 71 80 71 86 86 122 130 93 93 
120 131 210 159 215 188 187 229 230 147 142 126 150 146 172 164 180 139 163 117 85 83 82 155 98 136 92 119 126 154 114 99 67 127 133 110 100 84 62 104 97 100 113 110 100 78 81 97 109 115 109 89 84 90 78 88 83 81 77 64 68 61 65 40 72 70 68 77 68 69 78 60 61 63 75 90 70 80 90 96 100 113 110 91 101 110 127 150 159 162 168 180 185 166 125 128 108 101 121 124 130 101 114 115 76 67 87 70 67 69 66 96 85 101 84 100 81 92 104 105 98 105 126 121 145 113 120 61 53 48 56 62 79 75 84 75 76 63 61 72 66 91 102 81 89 100 100 111 69 65 60 58 60 66 64 66 79 86 99 76 77 87 97 118 102 132 108 105 111 99 
135 189 240 223 215 184 167 179 245 177 182 129 174 182 219 187 159 135 178 170 150 89 89 76 74 81 78 128 113 100 135 102 93 135 122 119 106 120 65 102 110 126 109 98 105 93 104 112 145 130 110 84 79 76 81 80 76 85 77 72 77 81 38 74 83 81 76 70 74 80 79 74 82 69 90 79 91 89 89 99 100 122 91 110 118 144 163 169 169 171 179 181 202 175 150 149 131 130 111 132 143 80 79 74 80 68 78 74 74 91 101 101 116 129 125 143 112 102 139 100 103 97 103 133 160 180 83 62 53 45 58 58 66 67 73 75 92 79 51 51 70 79 84 79 106 119 120 86 92 65 63 65 67 71 70 70 76 80 101 104 107 105 110 131 122 96 86 92 69 63 
161 229 229 232 233 172 150 144 139 157 127 185 215 215 212 206 155 167 203 166 117 149 119 88 100 78 71 68 68 95 93 97 105 145 118 100 119 70 76 118 116 101 100 101 72 109 98 102 129 159 142 132 87 77 62 70 80 122 99 110 83 37 60 68 90 92 94 80 80 83 85 80 82 79 90 96 96 94 99 113 112 98 113 149 137 135 136 181 181 190 194 213 213 190 142 119 113 104 122 148 100 80 76 69 68 100 90 87 102 123 111 144 177 197 199 126 118 90 78 69 67 58 49 59 56 63 68 60 55 59 54 70 56 68 69 79 80 85 68 47 47 79 86 81 98 121 82 74 67 66 67 70 69 72 77 80 90 105 120 122 115 101 132 112 121 106 99 87 94 101 
151 237 215 192 172 155 150 218 193 154 175 172 168 169 208 209 212 214 199 150 149 195 134 131 113 117 136 116 117 73 68 60 84 119 127 116 130 68 120 120 105 92 78 61 93 101 108 110 151 128 139 83 84 79 68 51 81 110 92 89 49 72 68 89 132 99 116 98 103 106 95 92 95 100 105 88 89 100 113 119 122 73 101 132 116 110 134 156 156 159 200 213 199 189 166 114 119 109 135 159 98 79 75 78 82 71 79 89 131 147 173 172 206 236 188 153 106 96 81 79 61 46 50 47 55 51 54 56 48 48 52 57 60 54 59 78 69 78 64 37 54 79 60 66 101 103 77 83 81 68 82 78 78 72 91 104 102 116 123 109 102 87 100 98 78 73 120 112 127 105 
245 227 211 177 166 229 205 193 207 197 161 188 186 203 173 219 197 183 194 201 204 194 196 181 183 187 179 181 141 160 107 149 85 74 134 140 116 54 103 100 103 82 65 68 79 100 111 114 115 125 120 96 79 72 76 53 75 76 79 88 33 50 101 130 95 89 112 99 110 106 119 102 86 103 92 89 110 104 108 123 107 78 102 110 90 118 133 129 119 154 191 191 209 188 168 115 123 118 127 154 169 84 81 90 86 69 80 98 124 145 165 186 187 240 261 227 130 94 103 81 82 67 61 57 49 50 51 50 50 50 56 68 62 67 60 68 71 67 49 47 74 60 61 90 105 93 101 102 78 70 74 91 79 76 76 106 99 146 164 145 118 107 103 110 104 73 75 57 79 58 
182 213 201 180 157 230 227 210 200 208 184 201 182 187 160 151 135 127 139 161 146 144 156 167 145 161 156 175 176 163 162 138 126 56 104 132 119 67 93 80 81 69 59 91 90 150 122 116 97 124 157 122 120 96 72 61 66 74 82 57 34 92 114 96 80 112 109 93 80 101 113 101 83 83 83 79 102 108 91 104 109 68 100 99 99 98 93 122 130 149 168 178 193 210 174 121 163 140 117 141 95 87 80 85 88 70 82 93 116 136 150 149 183 166 201 200 120 97 87 72 63 51 56 47 43 35 41 60 52 59 71 70 79 82 79 58 60 69 40 60 78 63 77 89 93 78 83 79 86 88 101 88 95 97 110 126 154 159 115 167 167 131 79 71 71 88 85 83 61 59 
160 139 183 163 146 131 127 132 206 159 204 200 208 164 153 181 153 140 130 155 140 128 155 127 113 129 144 104 128 158 154 159 155 74 82 130 126 54 61 70 78 62 70 118 117 136 89 92 128 154 109 136 141 80 59 51 60 67 73 40 37 86 93 73 89 83 79 81 92 92 79 93 68 72 82 84 75 92 67 69 91 83 77 67 76 80 97 118 120 127 167 172 169 194 167 123 141 161 167 118 152 104 88 90 85 88 75 94 94 106 150 164 184 184 144 154 142 95 75 81 69 75 52 58 60 32 28 36 38 63 65 44 38 37 62 34 40 49 29 38 54 48 46 50 55 68 95 125 112 122 131 130 118 132 120 120 102 127 120 150 139 130 89 106 143 116 106 118 103 93 
217 134 167 148 131 137 104 109 135 139 147 194 193 173 156 127 133 147 99 120 150 120 127 118 103 112 90 82 120 128 89 125 95 127 53 103 114 60 62 99 66 57 122 127 129 102 87 109 131 122 122 91 118 102 131 60 37 50 52 31 51 70 59 47 52 79 72 80 89 114 81 59 61 50 45 41 43 45 46 64 60 69 57 78 85 82 116 129 109 121 138 170 168 147 166 155 137 186 156 129 128 95 90 89 87 80 77 89 102 108 140 124 116 120 160 188 140 126 89 103 79 69 70 55 63 46 37 21 32 37 41 27 30 20 20 24 30 29 44 52 44 45 44 59 75 94 112 130 108 115 132 130 122 98 138 135 88 115 111 139 163 157 146 154 173 181 168 192 169 148 
199 163 147 137 105 97 92 100 121 113 118 150 201 183 176 163 153 138 98 151 128 132 125 106 103 109 84 71 67 67 64 65 100 76 52 69 91 93 48 71 64 66 128 87 117 88 96 117 107 119 113 120 96 81 102 98 74 32 33 30 67 49 48 67 67 103 69 118 124 92 80 79 70 49 42 77 82 57 92 99 69 63 60 76 90 88 87 90 106 113 154 175 191 170 134 146 143 198 159 190 139 118 81 88 87 89 84 89 98 109 108 143 169 173 142 150 209 146 88 62 55 59 51 48 60 74 49 29 29 24 28 26 19 36 29 50 30 29 28 32 48 37 50 69 76 91 113 92 118 118 119 138 127 134 111 88 63 117 97 94 132 134 115 130 104 155 152 198 130 131 
159 154 108 106 90 103 96 98 102 99 117 110 157 141 163 156 177 156 141 126 139 134 118 103 82 82 69 85 102 106 67 109 80 66 69 53 49 51 58 50 47 100 85 88 113 77 111 91 99 91 101 94 67 83 79 80 75 64 30 28 36 64 76 77 80 109 99 108 117 104 114 78 75 38 52 76 68 91 71 101 72 96 69 102 121 123 132 107 120 131 150 191 175 159 171 170 192 184 164 113 98 80 79 85 100 121 133 91 100 123 149 132 106 129 158 189 246 183 92 66 61 58 43 46 50 70 48 32 27 35 28 16 22 47 52 62 47 35 34 30 33 34 50 60 65 88 105 90 79 93 123 148 118 153 114 81 88 109 88 117 117 103 86 104 96 125 171 181 193 132 
161 112 110 97 89 82 88 91 106 98 96 110 128 130 121 139 175 157 99 111 112 105 101 78 90 152 136 116 99 95 80 152 133 100 83 59 49 47 46 45 47 68 90 94 85 78 75 69 79 67 82 61 66 61 57 55 46 52 26 48 82 87 109 119 105 119 117 130 135 153 118 119 80 33 80 95 93 93 89 88 100 88 70 79 88 123 130 132 129 172 185 177 168 157 190 198 212 198 194 138 154 75 70 82 87 101 109 100 112 132 167 157 80 128 124 120 222 172 93 67 62 50 34 40 48 61 40 38 31 36 37 21 29 40 55 65 62 58 47 34 50 62 39 49 61 58 84 73 84 90 135 140 75 102 112 67 113 71 66 105 72 90 94 62 95 112 137 142 147 123 
146 133 122 97 81 80 83 80 83 98 99 104 116 119 110 152 178 127 107 97 97 156 156 133 106 98 98 97 107 185 170 166 159 140 126 91 79 82 103 61 44 43 53 81 90 71 65 61 56 54 58 51 69 61 53 42 59 44 24 62 75 112 126 144 163 140 117 108 117 120 115 90 41 31 39 62 85 119 139 122 96 104 102 72 100 93 100 111 118 136 172 173 157 170 188 210 233 231 145 103 87 82 69 67 78 112 118 130 145 84 96 85 70 70 83 82 124 111 68 82 46 42 30 40 30 56 35 26 37 31 35 15 25 47 57 55 63 81 69 50 50 70 60 60 61 79 69 70 95 111 96 98 90 58 62 80 46 69 40 67 70 46 62 80 85 116 122 114 133 139 
127 137 131 102 87 80 89 80 85 104 111 123 124 129 120 107 107 97 116 134 100 141 139 114 98 99 192 175 169 146 146 140 129 112 101 100 95 66 58 85 59 43 46 98 69 59 60 57 55 55 44 51 48 60 39 46 75 38 24 96 91 97 109 115 128 82 120 81 88 112 93 85 33 82 106 134 97 157 164 147 108 116 83 102 102 112 104 89 109 130 176 178 172 178 183 188 205 233 231 166 111 69 61 78 127 116 127 72 60 59 61 79 79 70 57 74 58 65 57 59 60 46 35 26 33 30 22 22 29 19 40 25 20 35 52 40 49 61 48 52 54 66 86 80 101 82 95 101 89 75 64 70 55 49 64 47 52 55 47 55 76 68 61 66 61 82 62 68 90 91 
91 124 119 100 84 70 79 80 96 97 104 112 141 129 138 120 127 103 120 185 116 137 119 185 145 189 168 154 140 142 92 94 95 69 64 57 65 64 51 47 53 43 38 68 70 70 67 62 69 70 61 50 69 50 38 29 39 32 28 75 71 72 78 98 96 80 110 67 112 69 111 75 34 49 76 106 119 119 110 120 134 110 99 89 90 90 101 134 109 120 124 137 145 165 176 210 201 211 128 121 84 68 68 114 106 83 70 60 51 48 65 120 154 94 64 50 46 40 44 50 61 61 56 41 28 33 19 19 24 25 15 30 17 31 50 33 50 30 31 42 50 50 53 73 44 81 89 66 86 96 83 84 82 80 69 73 83 79 80 48 37 70 39 59 60 62 45 79 63 84 
79 89 120 100 84 69 70 80 80 84 103 189 157 166 227 176 117 161 167 159 130 208 204 140 175 143 142 120 86 80 77 73 75 100 80 99 86 116 59 79 61 60 39 52 89 108 91 145 146 145 132 129 109 93 60 41 49 35 20 29 41 47 49 58 62 68 67 65 59 80 92 41 28 40 65 72 73 93 88 110 110 124 107 114 106 111 110 128 143 148 137 157 172 137 182 200 216 223 114 96 75 62 109 120 137 148 131 70 49 62 105 111 185 161 160 124 90 50 50 29 57 76 69 47 28 20 26 23 30 9 17 9 19 28 40 28 40 40 51 38 53 32 42 36 50 77 61 64 62 71 89 99 93 95 115 114 117 72 60 43 37 27 31 39 54 52 31 50 54 66 
69 78 121 87 91 87 76 80 89 100 109 183 231 186 164 159 118 147 151 214 195 181 123 135 116 103 117 114 118 99 181 123 164 132 109 129 134 131 110 111 127 67 38 71 74 125 110 102 80 101 89 83 80 94 84 60 64 49 22 20 39 33 35 33 49 57 70 42 40 40 49 60 22 34 53 74 69 88 111 113 119 148 152 140 129 145 119 99 118 102 119 118 154 186 157 185 140 104 99 80 70 70 70 70 89 88 81 97 96 92 100 112 122 116 127 153 161 54 35 42 40 60 51 37 31 32 41 34 20 19 6 13 15 21 32 27 18 28 40 28 39 39 28 29 35 63 28 29 59 63 87 98 69 78 69 92 87 58 59 36 40 34 23 22 21 30 37 29 55 53 
62 104 122 70 93 106 95 111 97 110 130 211 218 206 190 130 144 139 154 143 183 120 113 126 176 124 107 99 187 134 172 125 162 155 149 135 123 93 99 99 60 64 37 62 67 109 105 83 63 69 58 65 55 70 59 60 62 70 51 18 18 43 45 50 45 74 49 64 59 64 37 31 20 71 96 53 113 110 98 84 121 129 127 148 170 126 97 78 77 123 108 94 139 179 183 115 98 79 70 66 59 52 56 46 46 57 47 55 55 52 42 62 59 63 71 84 104 93 44 36 83 54 38 31 40 58 58 33 16 10 15 10 12 20 31 33 27 18 26 20 19 23 19 20 41 36 26 29 34 47 56 57 58 58 61 53 64 67 70 66 69 68 57 40 32 18 37 21 49 48 
57 67 120 81 71 81 89 177 102 104 167 166 199 164 174 151 137 138 160 151 135 160 128 123 158 128 127 203 144 167 138 128 113 113 121 105 104 100 99 80 78 39 36 55 95 111 80 57 69 58 60 55 45 41 39 38 57 61 50 25 15 30 30 40 41 41 41 48 58 63 71 19 25 44 60 73 90 103 93 94 101 117 114 115 151 176 77 73 113 165 125 136 108 172 144 124 96 73 68 67 60 51 51 55 43 45 43 38 36 46 50 33 27 20 32 72 54 64 43 76 95 65 45 31 103 94 79 38 21 7 14 11 21 31 28 19 20 13 15 28 19 20 11 30 28 24 29 14 17 24 19 25 43 49 64 46 56 49 70 65 52 54 49 27 38 34 38 14 24 40 
55 57 61 80 87 85 78 91 70 79 105 148 143 174 164 151 167 162 182 162 187 160 221 223 219 171 178 185 139 109 110 90 89 90 82 81 76 80 110 102 82 38 35 60 96 91 70 71 60 42 48 41 48 37 26 34 50 61 52 12 13 30 38 35 33 39 50 29 33 39 53 15 31 38 36 47 66 81 72 89 82 79 100 99 147 89 68 71 82 188 108 138 115 112 126 109 113 100 92 75 82 65 58 61 48 48 40 36 36 46 40 41 68 32 18 31 40 41 13 27 36 51 52 22 95 87 134 87 8 23 34 20 22 27 25 25 20 15 11 10 17 13 20 22 31 20 15 11 21 28 18 15 17 20 28 31 36 36 38 40 34 39 33 52 53 39 43 21 32 31 
55 54 55 58 68 69 63 62 67 98 88 133 138 148 184 244 173 273 222 244 220 214 175 188 178 164 149 140 132 102 78 86 69 81 63 81 85 87 90 85 67 45 34 75 91 70 59 60 61 53 40 41 25 33 27 30 28 39 59 21 10 18 33 43 43 47 36 26 22 29 17 24 30 36 27 35 38 49 79 59 99 70 97 82 120 80 68 76 117 197 128 126 208 118 128 165 256 108 89 90 89 62 78 92 55 85 48 50 39 35 31 40 37 48 29 43 20 23 21 10 25 25 31 24 50 58 70 78 0 25 25 35 61 33 33 25 26 14 13 11 15 11 4 19 18 23 15 23 29 19 17 19 20 22 23 21 27 39 32 39 57 45 39 40 29 35 31 18 14 14 
54 57 88 64 58 56 58 55 59 75 107 135 188 172 181 162 252 151 167 168 188 191 158 115 147 130 114 130 120 92 85 68 60 75 69 60 58 112 70 70 60 38 34 71 104 80 60 72 52 36 33 27 29 24 29 23 17 28 57 32 11 16 32 39 45 39 39 34 30 15 13 17 47 39 52 58 43 50 51 72 93 56 68 83 113 97 67 134 90 136 181 178 213 139 154 224 170 225 157 160 151 112 131 68 72 65 90 63 47 53 40 50 47 50 42 29 53 41 52 18 31 22 13 7 19 37 28 19 7 26 29 71 67 60 74 29 27 20 12 18 32 19 10 6 12 13 9 10 7 9 13 11 21 20 24 42 50 40 39 56 53 30 23 29 30 18 23 41 25 28 
55 52 88 78 57 55 52 62 79 87 78 121 109 222 238 210 226 146 118 164 169 151 144 131 113 97 110 110 103 111 104 100 69 78 89 68 57 94 74 62 38 34 31 84 100 114 78 56 45 46 44 44 39 36 31 30 30 16 52 32 6 16 40 65 39 78 77 46 31 11 13 10 9 29 30 50 37 56 40 51 57 62 65 85 130 65 80 112 133 114 142 134 156 172 186 190 161 177 168 165 138 201 117 146 167 193 102 62 79 83 74 63 49 42 48 45 55 36 36 34 31 26 40 6 9 4 19 13 8 3 10 35 21 37 59 35 26 20 20 30 31 18 19 6 7 4 0 9 13 9 15 17 21 18 31 32 44 49 50 52 40 53 29 28 28 25 32 21 37 15 
